NOTE openvision4
VERSION .7
FIELDS x y z
TYPE F F F
COUNT 1 1 1
WIDTH 850
HEIGHT 1
VIEWPOINT 0 0 0 1 0 0 0
POINTS 850
DATA ascii
-13.181888580322266 -21.627153396606445 104.27783203125
-12.614803314208984 68.38688659667969 58.52099609375
-11.333057403564453 -36.356380462646484 -43.37994384765625
-13.290782928466797 50.07164001464844 -18.335224151611328
-12.401607513427734 -23.038768768310547 112.83152770996094
-13.60373306274414 -12.02004623413086 -1.2448806762695312
-13.41299057006836 21.155506134033203 -83.1537094116211
-12.990985870361328 -6.860161781311035 10.372213363647461
-12.503063201904297 -33.266502380371094 116.7638931274414
-13.001964569091797 42.97228240966797 66.65868377685547
-12.441364288330078 135.42376708984375 102.73949432373047
-12.160022735595703 3.0192806720733643 -91.55309295654297
-10.75711441040039 -42.140647888183594 106.77534484863281
-12.399471282958984 128.95880126953125 91.31111145019531
-12.501903533935547 -9.29643440246582 99.70645141601562
-12.191837310791016 37.27147674560547 66.42943572998047
-12.950931549072266 -14.02926254272461 -7.185970306396484
-12.253314971923828 -131.405029296875 -5.469692230224609
-12.411495208740234 -134.25039672851562 -5.251232147216797
-11.44100570678711 17.691356658935547 63.56160354614258
-12.768939971923828 -53.101985931396484 -42.804107666015625
-12.938091278076172 4.310507774353027 45.95301818847656
-11.517086029052734 -45.51845169067383 121.74210357666016
-12.04299545288086 -35.995235443115234 105.13572692871094
-12.908084869384766 1.3874258995056152 49.828067779541016
-11.697940826416016 4.836856842041016 97.35264587402344
-12.613773345947266 -3.352566719055176 16.732608795166016
-11.81942367553711 97.46299743652344 44.30705261230469
-12.451168060302734 -31.539714813232422 -41.40547180175781
-12.376667022705078 13.589210510253906 83.93380737304688
-12.31838607788086 -26.882553100585938 108.4566421508789
-12.48623275756836 63.188560485839844 59.94325256347656
-12.143726348876953 -38.27570343017578 -74.43793487548828
-11.777667999267578 130.06712341308594 91.20024108886719
-11.415157318115234 1.124422311782837 89.40568542480469
-12.702014923095703 -14.951095581054688 -12.54891586303711
-12.346927642822266 -10.911970138549805 103.20441436767578
-12.45663070678711 109.8252182006836 94.6904296875
-12.099369049072266 -1.0369906425476074 97.53758239746094
-12.337970733642578 14.132149696350098 79.8835220336914
-12.427684783935547 0.6138222217559814 87.23382568359375
-12.05026626586914 -49.06262969970703 -52.270263671875
-11.980709075927734 133.62774658203125 100.14920806884766
-11.921497344970703 32.65221405029297 66.1600341796875
-11.793254852294922 -131.84201049804688 -0.4492759704589844
-12.337726593017578 35.996849060058594 -53.47245788574219
-12.011409759521484 -37.0986328125 117.28448486328125
-12.436519622802734 -18.159442901611328 105.16645812988281
-12.05599594116211 -16.98788070678711 106.97966766357422
-11.993640899658203 128.68597412109375 93.94802856445312
-11.868961334228516 -47.097164154052734 -43.89109802246094
-12.117877960205078 81.62531280517578 58.78526306152344
-12.389354705810547 112.21595764160156 93.18435668945312
-12.109142303466797 22.513822555541992 63.08790588378906
-10.468570709228516 11.961084365844727 40.582611083984375
-11.289043426513672 -31.69574737548828 -81.196533203125
-11.721744537353516 2.092198610305786 61.40782928466797
-11.197528839111328 -47.42414474487305 -50.52435302734375
-12.270633697509766 110.96369934082031 95.63880920410156
-11.569805145263672 -35.951210021972656 117.2834701538086
-11.658336639404297 -15.13841438293457 -16.934070587158203
-11.91580581665039 2.904559850692749 81.54651641845703
-11.408977508544922 109.18658447265625 96.85520935058594
-11.427356719970703 57.44935607910156 -9.249591827392578
-11.946674346923828 -17.52924919128418 -90.31885528564453
-11.75699234008789 110.35163116455078 89.6817626953125
-12.185184478759766 12.481281280517578 -89.99186706542969
-11.881816864013672 -27.002208709716797 111.50517272949219
-11.397747039794922 99.07579803466797 51.33819580078125
-12.168636322021484 106.51296997070312 79.28083801269531
-11.810924530029297 112.27198791503906 95.93989562988281
-11.975841522216797 -41.66356658935547 -69.29238891601562
-12.312671661376953 132.67965698242188 98.03694152832031
-12.030353546142578 100.91862487792969 83.89329528808594
-11.67074203491211 19.464941024780273 62.24635314941406
-11.626155853271484 113.71699523925781 95.70083618164062
-10.413654327392578 70.90487670898438 3.8542537689208984
-12.088687896728516 110.17955017089844 92.06655883789062
-10.576702117919922 130.80833435058594 91.36770629882812
-9.517086029052734 14.051801681518555 -89.85079193115234
-12.08206558227539 64.30158996582031 -0.7087478637695312
-11.958873748779297 103.67610168457031 76.33932495117188
-11.370067596435547 90.1978759765625 60.06283187866211
-11.81728744506836 113.51799774169922 90.79755401611328
-12.164981842041016 -15.074468612670898 -24.45328140258789
-11.850666046142578 -19.458675384521484 110.2157974243164
-11.32095718383789 -20.76093864440918 107.28219604492188
-11.36868667602539 96.19532012939453 41.42249298095703
-11.40511703491211 -23.07547378540039 106.1520004272461
-11.372974395751953 0.510472297668457 54.339149475097656
-11.808231353759766 108.32341003417969 92.62005615234375
-11.40359115600586 -32.74650192260742 108.78577423095703
-10.75253677368164 -45.55607223510742 -47.566009521484375
-11.72220230102539 -1.5969829559326172 95.00047302246094
-11.505542755126953 -31.339797973632812 112.4200439453125
-11.767337799072266 8.268247604370117 32.570770263671875
-11.01578140258789 -24.2817325592041 -87.41743469238281
-11.68033218383789 10.245027542114258 94.48851013183594
-10.795459747314453 -45.77008056640625 -54.235992431640625
-11.093196868896484 74.89096069335938 61.852561950683594
-10.68875503540039 133.25274658203125 99.67356872558594
-9.53799819946289 1.5628798007965088 -92.18492889404297
-11.075092315673828 -23.568613052368164 110.31905364990234
-11.093097686767578 131.5482177734375 96.1248550415039
-12.259136199951172 2.003049850463867 86.09307861328125
-10.803043365478516 114.56594848632812 88.07781219482422
-11.548519134521484 -38.55984878540039 104.94841766357422
-11.04165267944336 94.26605987548828 87.68235778808594
-11.60416030883789 67.76029968261719 60.523277282714844
-11.425090789794922 -10.092365264892578 -92.405517578125
-11.541027069091797 38.90787124633789 -46.60852813720703
-11.619586944580078 53.356300354003906 -14.638683319091797
-11.55984878540039 96.64694213867188 78.97129821777344
-10.444103240966797 -34.75495529174805 -77.83186340332031
-11.669071197509766 41.76934814453125 -38.3037109375
-10.540019989013672 41.09792709350586 66.45913696289062
-11.48684310913086 112.22049713134766 80.61221313476562
-8.97774887084961 -16.317476272583008 -32.683563232421875
-11.680408477783203 -25.52204132080078 105.92588806152344
-10.638988494873047 133.02871704101562 100.88356018066406
-10.230548858642578 -35.429779052734375 115.34771728515625
-11.587848663330078 96.86418151855469 56.45452117919922
-11.535587310791016 11.193002700805664 81.50613403320312
-11.696727752685547 -38.02766418457031 104.32439422607422
-11.007678985595703 3.3963732719421387 73.5830307006836
-11.285030364990234 110.86322784423828 92.02586364746094
-10.804317474365234 -43.64365768432617 -62.7564697265625
-10.828907012939453 104.36019897460938 55.786563873291016
-11.170223236083984 -20.385547637939453 108.94892120361328
-11.118480682373047 2.9596328735351562 65.63489532470703
-10.621440887451172 -23.95608139038086 -40.090415954589844
-11.553836822509766 107.20712280273438 90.55131530761719
-10.807865142822266 118.22203063964844 87.22333526611328
-10.802982330322266 110.97169494628906 95.61172485351562
-11.270221710205078 11.211143493652344 91.71591186523438
-11.240650177001953 -43.17115783691406 107.89714813232422
-9.86520004272461 110.3897933959961 96.58879089355469
-11.30318832397461 49.64166259765625 65.00873565673828
-11.182971954345703 7.90617561340332 80.79959106445312
-11.026073455810547 -42.27435302734375 -45.027313232421875
-7.360279083251953 9.8656005859375 -92.5393295288086
-11.41231918334961 4.768538475036621 81.38522338867188
-11.076702117919922 115.29003143310547 91.84440612792969
-10.932308197021484 92.10111999511719 82.17646026611328
-10.210674285888672 109.56668090820312 97.52250671386719
-10.652271270751953 17.07950210571289 61.53767395019531
-11.296520233154297 109.14588165283203 72.69741821289062
-10.846813201904297 101.88990020751953 71.91653442382812
-9.93118667602539 103.57013702392578 94.58753967285156
-11.00009536743164 81.39827728271484 61.67243957519531
-10.530460357666016 1.664818525314331 50.89904022216797
-10.597736358642578 103.54703521728516 54.15785217285156
-9.77261734008789 124.18892669677734 89.6287841796875
-11.151683807373047 44.53169250488281 -32.372344970703125
-10.536808013916016 117.53684997558594 81.36552429199219
-10.166889190673828 106.72515869140625 94.91630554199219
-10.225971221923828 111.04357147216797 98.06266784667969
-11.055484771728516 61.67232894897461 61.545555114746094
-10.33969497680664 108.28311920166016 92.95817565917969
-9.274715423583984 74.87665557861328 8.098394393920898
-10.531978607177734 12.772387504577637 71.66416931152344
-10.37960433959961 90.30242919921875 31.59664535522461
-10.367740631103516 -27.888221740722656 -84.78575897216797
-8.165607452392578 -18.243398666381836 -38.771156311035156
-10.290164947509766 8.47785758972168 93.88037109375
-10.770488739013672 56.94142150878906 62.8603515625
-11.128856658935547 3.4520885944366455 88.44873809814453
-10.29733657836914 98.31136322021484 93.17047119140625
-8.836071014404297 -22.132198333740234 -40.33839416503906
-10.19357681274414 -37.436370849609375 115.3213119506836
-9.608074188232422 -45.12935256958008 120.12682342529297
-11.243816375732422 4.127936363220215 46.4935188293457
-10.851001739501953 3.009181499481201 95.954833984375
-10.612865447998047 92.0748062133789 77.95259094238281
-10.98647689819336 2.5075864791870117 25.88898468017578
-10.360828399658203 105.28153228759766 61.788082122802734
-10.739063262939453 1.7023684978485107 93.68412780761719
-10.053058624267578 119.23968505859375 88.70340728759766
-10.058040618896484 9.591168403625488 70.53004455566406
-10.674671173095703 36.782039642333984 67.61231994628906
-10.186107635498047 -35.6943473815918 107.5353775024414
-10.678081512451172 4.910788059234619 86.406982421875
-10.449054718017578 92.63455963134766 87.86958312988281
-10.425289154052734 125.0992431640625 88.1364974975586
-9.827434539794922 -42.88673400878906 111.3933334350586
-10.50119400024414 11.180207252502441 87.41488647460938
-10.23056411743164 8.044734954833984 86.06407165527344
-10.548404693603516 10.503683090209961 89.90220642089844
-10.60708999633789 46.698238372802734 -28.14633560180664
-10.206287384033203 107.29281616210938 70.3720703125
-7.078464508056641 4.96030330657959 -93.13111877441406
-10.295886993408203 90.63529205322266 84.86241912841797
-10.380725860595703 7.736742973327637 88.3140640258789
-9.946033477783203 116.30413818359375 91.7141342163086
-10.392505645751953 -38.148311614990234 107.20214080810547
-9.933231353759766 -39.5672721862793 -70.51812744140625
-9.087177276611328 2.272233247756958 54.54840850830078
-10.01491928100586 120.2229995727539 84.93394470214844
-9.492755889892578 112.25920104980469 98.52264404296875
-10.364788055419922 89.79568481445312 62.839141845703125
-9.956043243408203 -37.47607421875 107.05889129638672
-7.996547698974609 46.49361801147461 65.05352783203125
-9.866252899169922 97.28720092773438 63.533935546875
-9.443675994873047 86.06494140625 23.6043643951416
-9.521045684814453 125.68452453613281 89.85467529296875
-10.26968765258789 62.321815490722656 -4.439846038818359
-10.095447540283203 114.73583984375 65.47091674804688
-10.117809295654297 67.17829895019531 62.216766357421875
-10.196781158447266 116.21988677978516 68.93458557128906
-9.853511810302734 106.03197479248047 50.24919509887695
-10.02115249633789 93.35372924804688 74.3526611328125
-9.979511260986328 -34.44207763671875 112.80078887939453
-9.66696548461914 4.347968101501465 61.063602447509766
-9.54013442993164 127.14418029785156 86.74360656738281
-9.96298599243164 111.2818603515625 60.43278503417969
-10.067493438720703 20.344547271728516 62.57843780517578
-8.807964324951172 130.79788208007812 95.63278198242188
-10.152584075927734 28.65005111694336 66.08820343017578
-10.09646987915039 119.16363525390625 80.43518829345703
-10.18105697631836 105.08938598632812 63.20602798461914
-9.985774993896484 119.06222534179688 68.77001953125
-9.16280746459961 -30.09778594970703 -43.317352294921875
-10.14284896850586 117.12682342529297 78.32373809814453
-9.966503143310547 121.68751525878906 77.89056396484375
-9.220233917236328 -41.126495361328125 -66.32025909423828
-9.275890350341797 131.2825927734375 92.03692626953125
-9.98244857788086 6.160045623779297 92.3960952758789
-9.399539947509766 -44.561214447021484 117.19540405273438
-9.76633071899414 13.179585456848145 61.933807373046875
-9.570316314697266 -37.72597885131836 111.16448211669922
-8.56478500366211 -45.06779098510742 117.71165466308594
-8.016155242919922 90.00616455078125 96.98804473876953
-8.01511001586914 126.21786499023438 89.49818420410156
-9.759418487548828 117.85820007324219 64.84355163574219
-9.030590057373047 6.164875507354736 65.62125396728516
-9.048694610595703 -40.428863525390625 -47.0418701171875
-9.81747055053711 113.8637466430664 68.6195068359375
-9.613842010498047 81.98040008544922 63.42181396484375
-9.47957992553711 113.4411392211914 72.54476928710938
-9.691272735595703 -43.58354187011719 110.50228118896484
-7.808361053466797 131.1640167236328 93.120849609375
-7.085140228271484 100.86055755615234 33.68647384643555
-8.147876739501953 49.28234100341797 -24.407562255859375
-9.440601348876953 15.097908020019531 59.011444091796875
-9.576862335205078 123.05620574951172 87.80467987060547
-9.585102081298828 73.79216766357422 63.10160827636719
-9.60561752319336 121.60025024414062 69.5096664428711
-9.297855377197266 123.48149108886719 82.11891174316406
-9.517230987548828 88.82212829589844 79.95542907714844
-8.851490020751953 119.46479034423828 89.78520202636719
-9.714313507080078 116.00025939941406 94.55252075195312
-7.797107696533203 130.20697021484375 97.1417236328125
-8.54556655883789 107.97377014160156 97.59730529785156
-9.401615142822266 106.8895263671875 66.87212371826172
-8.175098419189453 81.17411041259766 15.147361755371094
-9.450511932373047 17.265735626220703 60.20314025878906
-8.352619171142578 -44.1380729675293 113.54972839355469
-9.205516815185547 100.7804183959961 65.2770004272461
-9.423152923583984 123.44316101074219 84.85308074951172
-9.430126190185547 32.42576217651367 67.93611145019531
-9.160938262939453 112.32193756103516 58.043739318847656
-9.300182342529297 100.95925903320312 69.84112548828125
-7.684970855712891 24.669954299926758 65.40084075927734
-9.375728607177734 87.96209716796875 64.30392456054688
-9.034061431884766 -41.791378021240234 116.87764739990234
-8.028873443603516 -41.74102783203125 -49.826133728027344
-8.845943450927734 -40.54882049560547 113.01551818847656
-9.004253387451172 9.658658981323242 59.881591796875
-8.83474349975586 124.59911346435547 74.1378173828125
-9.202495574951172 19.13239860534668 61.08012771606445
-8.81119155883789 6.459836959838867 33.83221435546875
-8.870548248291016 89.2971420288086 88.36239624023438
-8.29495620727539 108.70462036132812 69.05933380126953
-8.960514068603516 -42.979217529296875 110.11439514160156
-9.245067596435547 3.844505548477173 48.58962631225586
-8.369457244873047 115.47540283203125 96.53366088867188
-8.280536651611328 8.182304382324219 59.29670333862305
-8.538105010986328 131.8065185546875 97.48715209960938
-8.391071319580078 -34.4678955078125 -46.241859436035156
-8.548847198486328 -43.224449157714844 -51.968284606933594
-7.602893829345703 107.65927124023438 95.95326232910156
-8.08706283569336 128.63693237304688 87.32572937011719
-7.399906158447266 104.2905044555664 38.883819580078125
-7.865619659423828 96.12196350097656 97.22704315185547
-8.086002349853516 88.49447631835938 93.12216186523438
-8.902446746826172 107.03221130371094 96.26473999023438
-9.075313568115234 106.55936431884766 46.627376556396484
-8.986248016357422 95.55133056640625 71.87037658691406
-8.82156753540039 110.011474609375 69.60037994384766
-9.030445098876953 -3.4394593238830566 -92.65397644042969
-8.414722442626953 58.087127685546875 63.51190185546875
-7.635677337646484 127.03459930419922 78.47847747802734
-8.741596221923828 124.01055145263672 89.27490234375
-8.95022964477539 10.606637954711914 39.18180465698242
-8.575504302978516 111.95764923095703 56.461524963378906
-8.755084991455078 51.59314727783203 64.35511016845703
-7.407405853271484 115.07151794433594 54.32978057861328
-8.72513198852539 123.00393676757812 67.35127258300781
-8.732738494873047 92.22004699707031 74.22215270996094
-8.739330291748047 5.959169387817383 59.96247100830078
-8.744182586669922 54.306148529052734 -15.463607788085938
-8.739543914794922 67.11309051513672 -2.4064178466796875
-8.639537811279297 6.937765121459961 45.48564147949219
-6.432590484619141 51.98771286010742 -19.8511962890625
-8.172374725341797 58.7339973449707 -10.012092590332031
-8.197803497314453 106.02393341064453 69.14460754394531
-8.546085357666016 88.48301696777344 80.96226501464844
-7.884822845458984 90.01832580566406 76.55953979492188
-8.426082611083984 110.61607360839844 69.31375122070312
-7.772899627685547 120.53410339355469 92.22235107421875
-8.525043487548828 -13.4896240234375 -0.5111885070800781
-8.24526596069336 -9.093801498413086 10.462318420410156
-8.221187591552734 65.87504577636719 63.038169860839844
-7.896625518798828 4.7453227043151855 56.05777359008789
-7.383525848388672 93.54330444335938 66.28038024902344
-7.533473968505859 99.49517822265625 69.59423828125
-8.088008880615234 118.74676513671875 61.309814453125
-7.927753448486328 122.95415496826172 90.90872192382812
-8.075199127197266 -15.263128280639648 -6.944362640380859
-8.005115509033203 18.632709503173828 61.425567626953125
-7.725650787353516 126.22795104980469 92.05339050292969
-7.233974456787109 13.992465019226074 56.00941467285156
-8.224315643310547 70.85187530517578 0.5397453308105469
-7.875034332275391 -4.795587539672852 18.80950164794922
-8.192935943603516 33.5751953125 -69.48789978027344
-6.936801910400391 126.70672607421875 90.4676513671875
-7.836002349853516 88.4615478515625 85.81534576416016
-7.694980621337891 74.44538879394531 63.66142654418945
-8.11855697631836 36.83636474609375 -59.34723663330078
-7.378749847412109 123.97845458984375 64.74627685546875
-8.09561538696289 35.66596221923828 -64.00789642333984
-6.841022491455078 88.0257568359375 20.634201049804688
-7.157367706298828 105.36380004882812 98.93608093261719
-6.221630096435547 -15.832971572875977 -11.68381118774414
-7.431301116943359 6.959171772003174 57.00795364379883
-7.393985748291016 6.224146366119385 48.35493087768555
-7.972087860107422 29.303730010986328 -75.52825927734375
-5.781017303466797 -15.289287567138672 -25.88125991821289
-8.112201690673828 82.93730163574219 64.21112060546875
-8.096080780029297 37.789527893066406 -54.705413818359375
-7.411479949951172 -41.54970932006836 -61.416015625
-7.062358856201172 129.10317993164062 88.28181457519531
-6.297267913818359 -27.858543395996094 -84.47225952148438
-6.454311370849609 -24.11229705810547 -87.55206298828125
-7.469806671142578 43.62207794189453 -39.95594787597656
-6.462207794189453 -30.83930206298828 -81.52210998535156
-7.714832305908203 25.020477294921875 -80.36835479736328
-7.515705108642578 17.898757934570312 59.007652282714844
-7.429721832275391 93.29896545410156 72.90737915039062
-7.139301300048828 130.29067993164062 95.51016235351562
-7.185810089111328 128.00949096679688 94.6624755859375
-7.175113677978516 -17.763309478759766 -37.39530944824219
-6.115123748779297 39.42020797729492 68.32953643798828
-6.832401275634766 114.36124420166016 50.627235412597656
-7.021343231201172 114.4034423828125 98.03323364257812
-6.500316619873047 -18.049949645996094 -90.57746887207031
-7.025165557861328 107.7073974609375 99.2210693359375
-7.572284698486328 11.205680847167969 42.708740234375
-6.876819610595703 74.08753204345703 2.98992919921875
-7.365558624267578 9.658782005310059 57.51051330566406
-6.891109466552734 105.20487976074219 70.88075256347656
-8.02377700805664 21.09833335876465 -84.2448501586914
-7.439632415771484 -36.829139709472656 -47.8746337890625
-6.685871124267578 83.18988800048828 98.32072448730469
-4.781726837158203 -33.027130126953125 -77.90164947509766
-7.313091278076172 128.27676391601562 84.22673034667969
-7.051631927490234 85.06468200683594 91.5409927368164
-6.981281280517578 126.48802947998047 67.87593841552734
-7.147068023681641 98.15583801269531 67.41310119628906
-7.201320648193359 78.23695373535156 64.90293884277344
-6.605152130126953 32.18084716796875 69.17192077636719
-5.889896392822266 83.42473602294922 89.84046936035156
-7.204372406005859 101.28382110595703 81.12085723876953
-7.189556121826172 96.6797866821289 84.96603393554688
-6.451450347900391 7.93051815032959 49.53443145751953
-7.119472503662109 -10.036437034606934 -92.98030090332031
-7.143222808837891 46.894798278808594 -31.258811950683594
-5.829181671142578 122.15728759765625 93.82839965820312
-7.069858551025391 102.43846130371094 83.53038787841797
-5.692592620849609 124.10443115234375 62.73621368408203
-6.864490509033203 0.21082258224487305 26.278234481811523
-6.604145050048828 87.22018432617188 100.97742462158203
-7.020717620849609 -41.811092376708984 -57.34278106689453
-5.637203216552734 21.494136810302734 64.21658325195312
-5.164775848388672 110.04866027832031 99.67884826660156
-6.927494049072266 91.0497817993164 87.10795593261719
-5.472072601318359 124.94862365722656 92.61949920654297
-6.908847808837891 95.36729431152344 83.55132293701172
-5.408779144287109 79.76764678955078 7.96375846862793
-6.499454498291016 128.45700073242188 72.63954162597656
-5.827922821044922 58.028953552246094 64.2111587524414
-4.716571807861328 46.54191589355469 66.07747650146484
-6.428142547607422 11.871129989624023 53.188507080078125
-5.585956573486328 97.02017974853516 101.33368682861328
-6.342159271240234 81.12630462646484 95.71754455566406
-6.837726593017578 88.57122039794922 79.21067810058594
-5.320652008056641 10.610067367553711 42.36493682861328
-4.711101531982422 63.48540496826172 62.95960998535156
-6.238658905029297 17.533916473388672 58.41130065917969
-4.210346221923828 86.71991729736328 82.65557861328125
-6.555316925048828 79.55299377441406 95.05081939697266
-2.885883331298828 98.80499267578125 69.83220672607422
-6.595195770263672 97.88553619384766 87.14230346679688
-6.053340911865234 129.7164306640625 78.15409851074219
-6.118412017822266 104.83680725097656 69.94049072265625
-6.295452117919922 77.83657836914062 99.90495300292969
-6.195194244384766 -0.3582038879394531 -93.37547302246094
-6.038700103759766 126.78184509277344 92.39688873291016
-6.562664031982422 78.17157745361328 106.0768051147461
-6.357814788818359 110.4798355102539 43.74568176269531
-5.965480804443359 92.46729278564453 68.34295654296875
-5.998889923095703 129.0529022216797 86.16819763183594
-5.573955535888672 88.0442123413086 82.13249206542969
-4.672496795654297 35.459251403808594 69.759521484375
-5.815074920654297 72.3758773803711 100.66070556640625
-5.796672821044922 80.61214447021484 93.18069458007812
-5.153324127197266 73.0006103515625 98.64779663085938
-4.474842071533203 98.32244873046875 69.78585052490234
-5.501079559326172 87.12353515625 88.50735473632812
-5.698093414306641 12.487205505371094 45.63069152832031
-5.839557647705078 107.4468002319336 38.93523025512695
-5.739315032958984 73.65958404541016 97.89896392822266
-5.903522491455078 16.657670974731445 54.56853485107422
-5.616886138916016 102.57897186279297 71.19102478027344
-6.859645843505859 90.96122741699219 89.17221069335938
-5.740108489990234 128.3931427001953 90.0169448852539
-5.640254974365234 4.587855339050293 33.63856887817383
-4.068576812744141 84.09053039550781 12.053295135498047
-5.428661346435547 89.39649200439453 85.51084899902344
-5.970012664794922 100.08084869384766 79.62335205078125
-5.444347381591797 127.53392028808594 66.80355834960938
-6.093044281005859 76.11764526367188 105.7898941040039
-5.647464752197266 87.21646118164062 103.08646392822266
-5.649448394775391 80.36087036132812 104.5887222290039
-4.520130157470703 23.571870803833008 66.50801086425781
-5.028964996337891 93.63858795166016 81.83673858642578
-5.318294525146484 75.23721313476562 103.78438568115234
-4.671993255615234 128.07351684570312 63.656715393066406
-4.779506683349609 116.91631317138672 48.881988525390625
-5.789180755615234 -26.26239013671875 -41.02561950683594
-2.5286216735839844 88.02980041503906 15.101446151733398
-5.816761016845703 -40.365928649902344 -53.759315490722656
-5.328479766845703 80.15435791015625 108.1190185546875
-5.386089324951172 13.37131118774414 50.94593811035156
-5.245113372802734 79.16966247558594 105.67308807373047
-5.718852996826172 66.74679565429688 -4.907955169677734
-5.270168304443359 130.3026123046875 81.2499008178711
-5.670574188232422 70.59351348876953 -1.9797439575195312
-5.906223297119141 83.95547485351562 93.05430603027344
-4.307086944580078 69.54312133789062 100.082275390625
-4.973819732666016 76.93720245361328 93.70751953125
-5.589603424072266 -23.152992248535156 -37.64347839355469
-5.046573638916016 82.10553741455078 106.52180480957031
-2.971607208251953 115.20474243164062 98.79721069335938
-5.581462860107422 -23.46734046936035 -41.57152557373047
-4.863414764404297 130.92652893066406 75.66644287109375
-5.089176177978516 74.34723663330078 98.08726501464844
-5.961391448974609 79.08744049072266 95.58932495117188
-4.680690765380859 89.72608184814453 93.66861724853516
-5.100376129150391 105.90451049804688 35.969512939453125
-5.192394256591797 6.723658561706543 -94.30332946777344
-5.189434051513672 77.7653579711914 67.32090759277344
-3.790668487548828 72.1641845703125 93.83438110351562
-5.190853118896484 122.58161926269531 57.75074005126953
-4.461048126220703 91.62298583984375 103.68611145019531
-5.360248565673828 92.29461669921875 91.15621948242188
-4.977230072021484 77.75763702392578 97.63755798339844
-5.029941558837891 80.19450378417969 92.66224670410156
-3.9366111755371094 50.94587707519531 64.88287353515625
-5.305797576904297 14.423811912536621 48.253501892089844
-2.0826454162597656 12.796919822692871 -92.52362823486328
-4.235065460205078 91.54173278808594 20.932159423828125
-5.254093170166016 62.62204360961914 -7.783855438232422
-5.177227020263672 -25.330228805541992 -44.48527526855469
-5.084331512451172 -21.44105339050293 -41.72718811035156
-4.300052642822266 70.86935424804688 99.64833068847656
-4.287372589111328 70.30623626708984 98.57933807373047
-4.525234222412109 82.69514465332031 89.0843734741211
-5.170742034912109 77.85553741455078 107.14912414550781
-4.462100982666016 83.313720703125 95.83277893066406
-4.441913604736328 90.27676391601562 77.44792175292969
-4.460330963134766 97.40878295898438 78.86741638183594
-5.060459136962891 58.93544387817383 -11.61832046508789
-4.681652069091797 98.85296630859375 72.23689270019531
-5.032039642333984 79.75015258789062 106.1279067993164
-4.962703704833984 54.87919616699219 -16.407974243164062
-4.672672271728516 74.15016174316406 106.86888885498047
-4.942226409912109 -27.207090377807617 -38.609764099121094
-4.712848663330078 74.93260955810547 95.75379943847656
-4.240917205810547 79.45520782470703 104.00361633300781
-4.761302947998047 119.53431701660156 96.3150634765625
-4.440280914306641 128.7370147705078 88.05110931396484
-4.627925872802734 72.74332427978516 105.5832748413086
-4.853275299072266 103.8389663696289 85.4987564086914
-4.654956817626953 81.56648254394531 103.25119018554688
-4.873065948486328 2.1050779819488525 -94.35675048828125
-4.492923736572266 79.6871109008789 109.18639373779297
-4.396739959716797 -28.176776885986328 -44.685874938964844
-4.799587249755859 -25.257389068603516 -36.44749450683594
-4.260738372802734 78.59089660644531 92.42039489746094
-4.214679718017578 90.05451202392578 70.26336669921875
-3.9605369567871094 126.9316177368164 91.15336608886719
-4.522075653076172 16.108867645263672 50.718170166015625
-4.016201019287109 102.38871765136719 70.31437683105469
-4.428936004638672 12.8809232711792 45.788909912109375
-3.1279945373535156 65.64315795898438 63.92247009277344
-4.608654022216797 -10.085470199584961 -93.04019165039062
-4.590465545654297 31.683292388916016 69.06629943847656
-4.585735321044922 -28.608936309814453 -41.872833251953125
-4.138332366943359 71.5247802734375 101.20028686523438
-3.6666908264160156 84.21533203125 107.61134338378906
-4.080707550048828 70.28540802001953 104.8644790649414
-2.678333282470703 -35.20988082885742 -52.453330993652344
-4.312145233154297 -19.48356819152832 -39.721717834472656
-3.1127891540527344 -28.693836212158203 -48.073585510253906
-4.239864349365234 28.07037353515625 67.4021987915039
-3.548694610595703 9.253671646118164 41.831138610839844
-3.095165252685547 20.23467254638672 61.667213439941406
-4.068149566650391 75.34690856933594 108.07543182373047
-3.2242698669433594 -37.43431854248047 -68.31721496582031
-3.6178016662597656 123.2991943359375 55.358543395996094
-4.207538604736328 72.24846649169922 96.8846435546875
-3.835063934326172 77.14630126953125 105.77848815917969
-2.845722198486328 110.93668365478516 100.0751724243164
-2.7210426330566406 -38.18324279785156 -64.01614379882812
-3.597301483154297 74.54011535644531 101.26342010498047
-4.125743865966797 104.88729095458984 74.03074645996094
-2.911754608154297 -30.631954193115234 -49.759254455566406
-2.539112091064453 -32.29068374633789 -50.764625549316406
-2.5888328552246094 69.67400360107422 100.25481414794922
-4.089450836181641 -21.07077980041504 -35.861061096191406
-0.10396194458007812 -15.543359756469727 -20.41073226928711
-4.185176849365234 103.81358337402344 78.47135925292969
-3.595500946044922 69.48165130615234 99.68722534179688
-3.964122772216797 103.47356414794922 73.19951629638672
-4.156864166259766 100.1656723022461 89.10814666748047
-4.129756927490234 -3.426262855529785 -93.81936645507812
-4.158321380615234 -12.335472106933594 4.7702789306640625
-3.9764060974121094 -9.402920722961426 12.566818237304688
-3.8088645935058594 105.4075698852539 75.42369079589844
-3.222911834716797 85.73184967041016 87.45578002929688
-2.885112762451172 26.17626953125 67.50032043457031
-2.6852760314941406 124.64321899414062 94.07640075683594
-2.9277992248535156 73.19222259521484 107.61225128173828
-3.960956573486328 -14.643095016479492 -1.8171768188476562
-3.602733612060547 106.15193939208984 34.72171401977539
-3.7092628479003906 -6.309078216552734 18.82977867126465
-3.9227333068847656 101.38013458251953 74.03102111816406
-3.302349090576172 131.83123779296875 70.82098388671875
-3.7086830139160156 38.67832565307617 -56.493568420410156
-3.774272918701172 42.08304214477539 -46.629638671875
-3.1642799377441406 80.75794219970703 99.6344985961914
-3.540485382080078 -15.770257949829102 -6.4719696044921875
-3.786914825439453 37.67927551269531 -60.84363555908203
-2.779529571533203 71.98502349853516 101.79286193847656
-1.6571311950683594 72.98211669921875 94.13815307617188
-3.2609901428222656 113.7878189086914 43.340843200683594
-2.222270965576172 38.91511154174805 68.55148315429688
-4.015323638916016 77.09808349609375 67.91099548339844
-3.8540306091308594 95.49351501464844 72.02430725097656
-3.5210304260253906 128.88226318359375 63.06671142578125
-3.6095237731933594 89.90225219726562 83.64907836914062
-3.307750701904297 55.19227981567383 64.4100341796875
-3.3747901916503906 3.481771945953369 -96.50126647949219
-0.5142478942871094 33.98519515991211 -70.9468002319336
-3.588672637939453 36.21062469482422 -65.53717041015625
-2.466594696044922 19.407859802246094 57.3011589050293
-3.361888885498047 -28.34408187866211 -82.91041564941406
-3.6508140563964844 29.214767456054688 -76.44377899169922
-3.092235565185547 92.480224609375 93.63896179199219
-3.465282440185547 -28.406261444091797 -37.86705017089844
-2.9840431213378906 100.8423843383789 71.235595703125
-2.9301414489746094 -23.6676025390625 -34.918251037597656
-3.116962432861328 48.4178466796875 -29.823867797851562
-3.257007598876953 1.5830895900726318 29.884321212768555
-3.388965606689453 -26.596311569213867 -35.77153015136719
-3.3120460510253906 -18.1811466217041 -37.16151428222656
-2.550670623779297 69.29334259033203 96.80174255371094
-3.364612579345703 97.16665649414062 78.19842529296875
-3.2297096252441406 41.683109283447266 67.50444030761719
-2.8522987365722656 5.8953399658203125 -96.78294372558594
-2.153453826904297 97.98601531982422 103.78582763671875
-2.705944061279297 97.93040466308594 72.40276336669922
-2.151630401611328 20.31318473815918 -85.70967102050781
-2.373516082763672 1.0122058391571045 -96.02824401855469
-3.197307586669922 -30.18697738647461 -41.505401611328125
-3.071094512939453 -16.353538513183594 -30.891639709472656
-2.154644012451172 21.79485321044922 64.64391326904297
-2.7382240295410156 -23.038000106811523 -87.08007049560547
-3.086048126220703 127.99246215820312 59.78412628173828
-2.508159637451172 70.02310943603516 98.14929962158203
-2.2695045471191406 68.70132446289062 99.9942626953125
-2.4937095642089844 101.63524627685547 73.14651489257812
-1.8706016540527344 48.39006423950195 64.98412322998047
-2.214557647705078 0.322878360748291 -94.63858032226562
-2.7168922424316406 -19.42200469970703 -35.72747802734375
-2.755939483642578 131.289794921875 65.78763580322266
-1.7709617614746094 9.720701217651367 42.9173469543457
-2.4435997009277344 93.56356811523438 72.28951263427734
-2.2223854064941406 68.62744903564453 100.41577911376953
-2.2319297790527344 69.67269897460938 105.41573333740234
-2.437877655029297 132.28851318359375 78.29434967041016
-1.9212837219238281 77.70537567138672 92.10978698730469
-1.0615272521972656 128.27743530273438 90.29682922363281
-2.8827552795410156 -38.14152526855469 -58.805198669433594
-2.8813438415527344 104.99075317382812 78.9097671508789
-2.4355735778808594 -15.713424682617188 -26.868297576904297
-2.572154998779297 130.97470092773438 83.62478637695312
-2.082317352294922 -17.204553604125977 -90.02970886230469
-1.9662818908691406 96.1677474975586 71.17095947265625
-1.4210700988769531 87.11988067626953 71.37541198730469
0.2977790832519531 49.850990295410156 -26.657032012939453
-2.723033905029297 -29.898128509521484 -44.24488067626953
-2.416492462158203 83.80265045166016 84.60984802246094
-1.0231742858886719 69.12850952148438 100.49175262451172
-3.0340614318847656 87.90830993652344 80.80583190917969
-2.638172149658203 75.25625610351562 0.21298980712890625
-2.095325469970703 76.93414306640625 109.73208618164062
-2.3731651306152344 72.13740539550781 92.58316040039062
-1.9926261901855469 -2.5963621139526367 -99.94169616699219
-2.094806671142578 70.6318588256836 93.82740783691406
-2.7175559997558594 67.36984252929688 -5.879112243652344
-1.9605674743652344 -2.179488182067871 -101.40843200683594
-2.0498008728027344 -31.134517669677734 -77.82382202148438
-2.520038604736328 104.4957046508789 30.515018463134766
-2.474689483642578 93.00643920898438 19.442005157470703
-1.2677192687988281 80.20677185058594 90.13786315917969
-2.378284454345703 80.36136627197266 5.141206741333008
-2.1890296936035156 -19.825769424438477 -30.600341796875
-2.356708526611328 62.22389221191406 -9.269329071044922
-2.2956275939941406 113.43399047851562 40.448081970214844
-1.4829978942871094 3.783276081085205 -99.12652587890625
-1.5860176086425781 73.5032958984375 103.13352966308594
-1.5504951477050781 17.398666381835938 49.74863052368164
-2.3163185119628906 -10.3662109375 -92.98103332519531
-2.588611602783203 76.73533630371094 92.60531616210938
-2.166606903076172 84.36316680908203 10.164966583251953
-0.22401046752929688 51.871368408203125 -21.81045150756836
-1.2738761901855469 98.02887725830078 70.6108627319336
-1.0598487854003906 92.98997497558594 80.65283203125
-1.6230430603027344 -28.017852783203125 -48.331825256347656
-2.0670738220214844 29.63341522216797 67.60083770751953
-1.5295066833496094 6.7989068031311035 38.86085510253906
-0.16566848754882812 55.174800872802734 -17.194866180419922
-2.197162628173828 129.44729614257812 60.69158172607422
0.10069656372070312 58.10212707519531 -13.837715148925781
0.2875862121582031 70.44641876220703 102.25474548339844
-2.084880828857422 80.79867553710938 109.68773651123047
-2.0575218200683594 132.822509765625 72.52056884765625
-1.8571357727050781 121.32672882080078 49.858375549316406
-1.1870765686035156 102.08794403076172 102.60266876220703
-1.9058570861816406 35.76883316040039 69.09056091308594
-1.6726951599121094 68.10242462158203 65.49471282958984
-0.3825492858886719 -4.8723039627075195 -93.75091552734375
-1.8813056945800781 32.672508239746094 68.6653060913086
-1.1142921447753906 -21.01694107055664 -31.276901245117188
-1.7396659851074219 86.16300201416016 98.40950775146484
-0.5784339904785156 76.7801742553711 68.83860778808594
-1.7098426818847656 -26.831205368041992 -83.11720275878906
-1.2152366638183594 -19.119949340820312 -26.538509368896484
-1.6463508605957031 75.54878997802734 103.34617614746094
-1.0936241149902344 95.74642944335938 72.25817108154297
-0.9870872497558594 -3.3369970321655273 -99.03485107421875
-1.0094642639160156 5.042530059814453 -98.64794921875
0.10058212280273438 127.02825164794922 92.4034194946289
-1.3273353576660156 97.1019515991211 69.81573486328125
-0.22477340698242188 83.80229187011719 70.60755920410156
-0.13665390014648438 -27.837841033935547 -49.00146484375
0.048793792724609375 -0.9831938743591309 -93.93992614746094
-0.07513046264648438 -26.70157814025879 -35.564781188964844
-1.0557365417480469 -22.83698844909668 -34.50078582763672
0.004230499267578125 -28.273834228515625 -37.59777069091797
-1.4640769958496094 85.98905944824219 86.78915405273438
-1.1541786193847656 -30.242515563964844 -41.49517822265625
-0.6140327453613281 -39.140533447265625 -122.49940490722656
0.4889717102050781 54.04226303100586 63.78612518310547
-0.6641654968261719 92.29117584228516 73.59494018554688
-0.3591041564941406 -30.00375747680664 -43.968017578125
0.007976531982421875 93.37355041503906 75.30319213867188
0.025997161865234375 19.900146484375 53.88308334350586
-0.19253158569335938 72.54444885253906 93.90010070800781
0.08298110961914062 20.685670852661133 56.45771789550781
-0.5420570373535156 -40.395572662353516 -121.37803649902344
0.024707794189453125 -9.904250144958496 -92.33052062988281
-0.17992019653320312 70.38372802734375 96.23593139648438
0.006839752197265625 -28.008575439453125 -79.60826873779297
0.001415252685546875 -32.45552444458008 -72.78679656982422
-0.028179168701171875 -29.713279724121094 -51.036399841308594
-0.2725791931152344 -1.245633602142334 -96.888671875
0.017749786376953125 -35.46181869506836 -65.31555938720703
-0.025089263916015625 -24.67503547668457 -83.49491882324219
0.006336212158203125 -35.49741744995117 -59.75365447998047
0.030673980712890625 31.465850830078125 67.07688903808594
0.006198883056640625 -20.883644104003906 -86.32410430908203
2.4506568908691406 69.5767822265625 100.47499084472656
2.4405784606933594 106.16456604003906 101.32942962646484
-0.22945785522460938 -15.321813583374023 -110.00447082519531
0.2803382873535156 -31.75457000732422 -52.36924743652344
2.2808876037597656 69.1046371459961 97.72660827636719
0.021244049072265625 -32.940189361572266 -54.515785217285156
0.039836883544921875 21.347570419311523 61.5484504699707
0.2570152282714844 69.45745086669922 98.65388488769531
0.038722991943359375 -15.659162521362305 -89.54830169677734
-0.028926849365234375 22.338422775268555 64.58328247070312
-0.024967193603515625 -17.905427932739258 -27.050518035888672
2.182941436767578 111.83777618408203 99.9842300415039
0.017139434814453125 39.01884078979492 67.52056884765625
0.043125152587890625 34.74598693847656 68.028076171875
0.007946014404296875 24.224637985229492 66.40289306640625
0.09298324584960938 76.36096954345703 92.11370849609375
0.037769317626953125 122.93441772460938 95.74440002441406
0.007793426513671875 28.549543380737305 67.32728576660156
0.08572006225585938 42.38365173339844 66.46305847167969
0.07847976684570312 71.72249603271484 102.27415466308594
0.7484397888183594 87.72731018066406 107.72537994384766
0.7754554748535156 125.02757263183594 94.33718872070312
0.08510971069335938 131.65863037109375 82.88064575195312
-0.7276573181152344 88.0347900390625 107.61001586914062
0.032283782958984375 133.12841796875 75.58920288085938
2.256458282470703 80.40533447265625 109.74266052246094
3.0231666564941406 78.05907440185547 109.74119567871094
1.7264900207519531 75.37844848632812 109.28760528564453
-0.010616302490234375 132.62362670898438 68.07884979248047
0.020503997802734375 87.76020812988281 98.0823974609375
-0.10176467895507812 94.55347442626953 92.9054946899414
0.016017913818359375 99.78641510009766 89.56135559082031
0.036548614501953125 76.70848083496094 103.54163360595703
0.016017913818359375 103.52987670898438 86.22030639648438
0.4090385437011719 73.70130157470703 103.73748779296875
0.012706756591796875 130.6309814453125 61.929325103759766
0.016017913818359375 105.8193359375 78.60247039794922
3.1800270080566406 68.8108901977539 100.15518188476562
0.016017913818359375 106.95769500732422 75.16569519042969
1.1626091003417969 80.13033294677734 90.21516418457031
0.016017913818359375 106.53140258789062 72.5457763671875
2.050640106201172 77.97305297851562 92.05926513671875
-0.042507171630859375 126.8893814086914 56.093284606933594
1.7979698181152344 74.9900894165039 92.62673950195312
0.016017913818359375 96.94398498535156 77.565673828125
0.016017913818359375 104.3988037109375 71.48390197753906
0.016017913818359375 101.22135162353516 72.70088195800781
0.16717910766601562 89.66932678222656 79.1377182006836
0.9905967712402344 96.89651489257812 69.76091766357422
0.031612396240234375 114.7518310546875 40.91740798950195
0.4149055480957031 65.24192810058594 64.82559204101562
0.07448959350585938 61.10195541381836 63.72808074951172
0.019077301025390625 105.64622497558594 30.49751853942871
-0.002040863037109375 88.796142578125 14.252363204956055
0.07912063598632812 82.23789978027344 6.257831573486328
0.5537071228027344 17.63629150390625 49.578468322753906
-1.3198585510253906 14.617056846618652 47.424293518066406
1.4457206726074219 9.917709350585938 43.20767593383789
0.004558563232421875 75.26604461669922 -0.787567138671875
0.09487533569335938 68.14679718017578 -6.162239074707031
-0.054866790771484375 1.7149455547332764 30.48419952392578
0.4983329772949219 62.05525207519531 -9.932876586914062
0.06307601928710938 -6.607587814331055 19.0779972076416
-0.08945846557617188 -10.19212818145752 11.659114837646484
-0.14633560180664062 -14.31906509399414 -0.24433135986328125
0.048191070556640625 41.68997573852539 -48.36811828613281
-0.13590621948242188 39.234130859375 -56.22758483886719
0.7133293151855469 -16.068819046020508 -26.697357177734375
0.016017913818359375 38.036964416503906 -61.518646240234375
0.7533149719238281 -19.529470443725586 -26.432044982910156
0.016017913818359375 36.4548454284668 -66.28449249267578
0.012279510498046875 29.62908935546875 -76.42204284667969
0.3917427062988281 -30.08187484741211 -41.63197326660156
-2.3737449645996094 9.524360656738281 -94.80783081054688
2.0356788635253906 8.956613540649414 -95.37811279296875
2.121814727783203 0.8498573303222656 -96.09640502929688
0.4958076477050781 -1.4352755546569824 -102.48481750488281
0.3109931945800781 -40.390811920166016 -121.17704772949219
-0.9621009826660156 -40.25471115112305 -122.06057739257812
2.0104942321777344 99.31483459472656 103.48428344726562
-0.040599822998046875 82.98979949951172 85.01101684570312
0.4258842468261719 -3.933990478515625 -99.15061950683594
0.4055366516113281 -39.55560302734375 -122.84439086914062
2.048503875732422 68.6700668334961 99.84239196777344
2.5820274353027344 -26.519746780395508 -84.1248550415039
1.2011985778808594 96.25008392333984 72.07583618164062
0.017307281494140625 71.74585723876953 106.5542984008789
1.1359291076660156 69.53580474853516 105.32762908935547
1.6598243713378906 -2.930738925933838 -99.39173889160156
1.3456764221191406 3.431769371032715 -99.47001647949219
1.0608329772949219 -39.634830474853516 -121.86837768554688
1.6506309509277344 98.4994125366211 70.60161590576172
0.8014488220214844 -22.19232940673828 -34.19483184814453
1.7096672058105469 72.51712799072266 94.45454406738281
1.8776054382324219 70.69416809082031 96.61019897460938
2.2058067321777344 -30.131629943847656 -44.08808135986328
1.0968055725097656 92.42194366455078 73.39387512207031
2.735980987548828 72.611572265625 102.15260314941406
3.240978240966797 69.60213470458984 100.24044799804688
2.6608848571777344 76.86358642578125 92.52911376953125
3.133312225341797 14.475249290466309 47.30142593383789
2.4220314025878906 12.585909843444824 -92.65074157714844
2.869792938232422 -17.03374481201172 -90.40257263183594
1.5062675476074219 83.7531509399414 70.29022216796875
0.3274650573730469 50.68084716796875 63.99840545654297
2.008373260498047 -2.3110361099243164 -101.43675231933594
3.822246551513672 61.71379089355469 63.092140197753906
2.0374183654785156 127.93895721435547 90.65778350830078
2.0958213806152344 -2.3150734901428223 -100.24420166015625
2.331523895263672 72.63728332519531 92.57726287841797
2.243572235107422 70.87970733642578 93.35993957519531
3.343578338623047 114.95394897460938 98.82762145996094
2.1906166076660156 -19.693090438842773 -30.136093139648438
2.552265167236328 -23.17868423461914 -86.83796691894531
1.6437110900878906 76.18806457519531 103.24665832519531
1.9052543640136719 -27.968292236328125 -48.0291748046875
2.9426612854003906 70.1841049194336 98.11065673828125
3.2968101501464844 95.8328628540039 71.70930480957031
2.610118865966797 -19.777603149414062 -35.680641174316406
2.694202423095703 130.92254638671875 83.72915649414062
2.605632781982422 -15.62728500366211 -27.018325805664062
1.6804618835449219 87.5364990234375 97.6486587524414
1.9509239196777344 75.16197204589844 68.08183288574219
1.9109992980957031 -17.872987747192383 -27.03571319580078
3.599689483642578 20.220359802246094 62.11981964111328
2.502979278564453 132.17617797851562 78.92123413085938
2.7824440002441406 -29.336288452148438 -81.2938232421875
1.9856605529785156 26.782703399658203 67.60095977783203
3.1895103454589844 21.7344913482666 64.67491912841797
1.8405876159667969 38.86176300048828 68.4906997680664
2.139629364013672 132.82876586914062 72.82867431640625
2.0350074768066406 127.27847290039062 57.48955535888672
3.098979949951172 23.642955780029297 66.55807495117188
3.8239402770996094 31.796051025390625 69.07754516601562
1.9330863952636719 -5.007438659667969 -93.82212829589844
3.4908714294433594 35.771053314208984 69.68746948242188
2.036243438720703 29.764503479003906 67.60693359375
2.528736114501953 84.0201644897461 84.42161560058594
3.157855987548828 4.495993137359619 -97.04620361328125
4.886402130126953 -15.337512969970703 -25.765213012695312
2.744525909423828 131.43881225585938 66.23448944091797
3.075855255126953 123.7541275024414 94.46031188964844
2.5959205627441406 93.34933471679688 72.18795776367188
2.1653709411621094 130.15037536621094 62.11851501464844
3.1978797912597656 97.5841293334961 77.74786376953125
2.9670448303222656 -37.176998138427734 -68.47503662109375
4.577060699462891 54.76962661743164 -16.716068267822266
3.1686439514160156 91.3877944946289 82.22711181640625
2.272594451904297 -34.316898345947266 -52.32147216796875
2.111652374267578 85.59493255615234 87.09724426269531
2.3996543884277344 110.9736557006836 37.59947204589844
3.1922340393066406 19.25349998474121 58.29878234863281
3.476062774658203 -37.09466552734375 -53.92802429199219
3.1531944274902344 0.9823722839355469 -95.12654113769531
2.3392677307128906 87.24718475341797 14.127866744995117
2.4161109924316406 -32.64542770385742 -75.71113586425781
