NOTE openvision4
VERSION .7
FIELDS x y z
TYPE F F F
COUNT 1 1 1
WIDTH 859
HEIGHT 1
VIEWPOINT 0 0 0 1 0 0 0
POINTS 859
DATA ascii
-4.462700366973877 -3.359524726867676 -7.054330825805664
-0.47846221923828125 80.49307250976562 87.17692565917969
-6.819519519805908 -6.820406436920166 14.815364837646484
-7.356189727783203 56.51356506347656 117.93038940429688
-3.873434066772461 83.88624572753906 131.2182159423828
8.541763305664062 69.62728881835938 -25.399707794189453
7.188035011291504 67.51212310791016 -15.271181106567383
-12.245070457458496 25.893423080444336 128.87997436523438
-3.4031476974487305 -2.0123276710510254 -11.546192169189453
9.072314262390137 71.00225830078125 -29.613412857055664
-12.888031959533691 17.296890258789062 126.14924621582031
-10.49985122680664 21.866802215576172 120.29595947265625
-0.9062986373901367 82.53963470458984 98.50570678710938
-9.673251152038574 6.0541911125183105 80.73795318603516
-8.370306015014648 39.03810501098633 100.02337646484375
-7.429914474487305 52.529380798339844 113.15497589111328
-3.096454620361328 85.35798645019531 123.08779907226562
-9.454811096191406 41.84153747558594 120.09234619140625
-8.824597358703613 22.128751754760742 85.6536636352539
12.437199592590332 60.05253219604492 -77.67469024658203
13.59846019744873 72.5179672241211 -39.79413986206055
9.892653465270996 72.11241149902344 -34.337833404541016
-9.657576560974121 -4.740627288818359 60.97348403930664
7.835897445678711 26.14368438720703 -82.83358001708984
11.005805015563965 71.72991943359375 -47.24188232421875
-10.318800926208496 38.87454605102539 129.94940185546875
0.6341834664344788 3.2131800651550293 -44.73835372924805
-6.03355073928833 57.33893966674805 115.37030029296875
1.064764380455017 5.655148983001709 -39.70962142944336
5.680217266082764 64.247314453125 2.3374276161193848
-7.502266883850098 -5.810573577880859 28.350793838500977
0.5198910236358643 3.6722946166992188 -42.009037017822266
1.468509316444397 11.506339073181152 -38.77164077758789
-12.085715293884277 17.51618003845215 120.53524017333984
-7.790616035461426 50.73824691772461 119.30479431152344
-10.284992218017578 9.083961486816406 81.20620727539062
13.183499336242676 62.165775299072266 -76.60001373291016
-10.565062522888184 38.24907302856445 141.5123748779297
-6.169917583465576 54.234107971191406 114.85968017578125
13.249469757080078 68.66529846191406 -59.60782241821289
13.156486511230469 57.56858825683594 -78.47325897216797
1.3327199220657349 3.5119469165802 -48.72623062133789
0.8601312041282654 9.834430694580078 -32.48323440551758
-10.321589469909668 -6.493799686431885 68.46991729736328
9.518998146057129 32.67182540893555 -83.52645874023438
-2.2203216552734375 86.20699310302734 119.88346099853516
-12.19942569732666 17.44408416748047 122.06237030029297
-12.357807159423828 15.3496675491333 122.95472717285156
-5.790226936340332 56.9676399230957 117.44960021972656
-8.028816223144531 15.853204727172852 82.71267700195312
13.040509223937988 56.25394058227539 -77.64268493652344
1.7321019172668457 9.636563301086426 -38.15127944946289
-2.584756851196289 85.90406799316406 126.72443389892578
-7.459864616394043 -5.751374244689941 43.7872314453125
-6.23315954208374 50.54816818237305 112.50157165527344
-12.383561134338379 15.065773963928223 123.2773666381836
-13.099303245544434 13.412723541259766 128.05726623535156
-4.1640472412109375 80.34768676757812 137.86663818359375
-10.073344230651855 26.943857192993164 121.02728271484375
-5.011391639709473 70.64057159423828 146.05789184570312
3.749235153198242 5.5096116065979 -67.50989532470703
-6.81889009475708 56.94261169433594 124.05005645751953
0.9017666578292847 8.238386154174805 -28.681678771972656
-5.2379655838012695 76.54386138916016 141.6791534423828
11.082653045654297 39.02250289916992 -82.9071273803711
-5.384704113006592 53.2551383972168 112.96324157714844
-5.5832839012146 45.39463806152344 108.44928741455078
8.654413223266602 63.34722900390625 6.090722560882568
2.2535758018493652 5.078988552093506 -50.84978103637695
-8.90566635131836 36.00172805786133 117.82374572753906
-11.17602252960205 15.274402618408203 123.71698760986328
-8.595386505126953 41.509708404541016 116.69495391845703
3.505885124206543 71.6785888671875 41.86957931518555
-13.080427169799805 17.358943939208984 135.5275421142578
-11.025463104248047 22.04669952392578 118.46959686279297
13.86746597290039 56.43977737426758 -83.64067840576172
-11.06441879272461 20.09580421447754 118.76081848144531
3.774482250213623 68.0962142944336 32.573890686035156
14.162458419799805 57.53413772583008 -84.66121673583984
8.109521865844727 20.99660873413086 -79.86469268798828
1.121324062347412 81.06546783447266 82.84972381591797
2.017313003540039 76.93963623046875 67.46168518066406
-8.924951553344727 29.971221923828125 120.72918701171875
3.3821792602539062 73.4662094116211 48.74024200439453
1.4127674102783203 6.609912395477295 -33.97197341918945
4.26384162902832 65.40019226074219 27.042463302612305
0.4722141623497009 83.56656646728516 95.96202087402344
14.73653507232666 61.362060546875 -79.56148529052734
-11.80626392364502 17.726543426513672 128.19183349609375
-7.722202301025391 -2.742434024810791 53.61289596557617
11.84858512878418 46.35850524902344 -81.84675598144531
-10.883742332458496 25.968029022216797 120.87601470947266
3.1102213859558105 74.2764663696289 55.10946273803711
7.534320831298828 62.67534255981445 11.203204154968262
-4.470203876495361 55.016029357910156 113.52887725830078
-6.232860088348389 45.605743408203125 119.41252899169922
4.126350402832031 8.588178634643555 -53.221885681152344
-10.092011451721191 -1.3597897291183472 75.08682250976562
-6.810249328613281 -6.204187393188477 38.845237731933594
7.121434211730957 63.123313903808594 16.846656799316406
-1.3751356601715088 86.8481674194336 121.49736022949219
7.082335948944092 63.860939025878906 21.24722671508789
-10.060920715332031 15.302047729492188 126.02326965332031
-12.762845039367676 20.65841293334961 137.5148468017578
-2.838635206222534 83.67879486083984 133.2935333251953
0.03496319055557251 85.41458892822266 108.10430145263672
-9.10857105255127 42.186973571777344 142.74977111816406
-9.691165924072266 3.0641369819641113 79.57645416259766
-6.3825554847717285 32.287322998046875 93.48702239990234
14.300490379333496 51.12378692626953 -79.43939971923828
-9.840629577636719 0.6498672962188721 77.59715270996094
2.4848010540008545 5.783867835998535 -35.06745910644531
-10.229619979858398 30.890153884887695 130.80752563476562
-5.157665252685547 37.78731155395508 100.9657974243164
9.612403869628906 27.287248611450195 -82.06085968017578
1.7864665985107422 4.999886512756348 -30.07158088684082
-11.740198135375977 19.36271095275879 129.4374237060547
-4.729608058929443 52.21574783325195 113.74526977539062
14.656977653503418 55.201446533203125 -83.16609191894531
15.225177764892578 62.11689758300781 -78.45223999023438
-4.296242713928223 68.33785247802734 147.2967071533203
-4.4696221351623535 54.64170455932617 112.36518096923828
-4.542453289031982 42.79301071166992 106.17433166503906
5.709098815917969 8.860821723937988 -53.55467987060547
15.057130813598633 54.45521545410156 -77.52207946777344
3.7414653301239014 2.986509084701538 -41.577178955078125
2.9088234901428223 5.869673252105713 -38.744720458984375
4.017636775970459 2.6741750240325928 -44.114402770996094
-8.14143180847168 36.60771179199219 120.90361785888672
3.3381600379943848 3.156665802001953 -48.554317474365234
15.937973022460938 36.697959899902344 -121.74842834472656
-5.077983379364014 20.907224655151367 84.88053131103516
-4.785900115966797 48.5413818359375 113.10800170898438
4.528940200805664 4.498123645782471 -50.448158264160156
-4.309171676635742 48.491737365722656 115.1844711303711
-6.627077102661133 -2.9553961753845215 58.5718994140625
-9.054535865783691 21.399316787719727 120.00305938720703
-6.915488243103027 -3.60599422454834 61.168548583984375
15.73466682434082 35.052650451660156 -121.44947052001953
14.086649894714355 46.0726432800293 -80.83366394042969
-9.577966690063477 18.377220153808594 120.85038757324219
10.658182144165039 24.250459671020508 -79.54488372802734
9.232770919799805 17.01171875 -76.0986328125
5.990681171417236 8.28795051574707 -56.249576568603516
15.184832572937012 55.7789192199707 -80.18643188476562
7.838381767272949 10.661684036254883 -71.3457260131836
11.498017311096191 29.058578491210938 -81.09288787841797
6.948285102844238 7.806365489959717 -66.65625762939453
-7.801939010620117 0.14997868239879608 75.80032348632812
12.269099235534668 33.708282470703125 -81.49980163574219
-7.718719482421875 15.148089408874512 124.26456451416016
-5.019956588745117 45.754554748535156 144.1481475830078
16.199377059936523 50.49704360961914 -98.65904998779297
6.345724582672119 7.187889575958252 -58.418060302734375
-7.489623069763184 16.169574737548828 121.67430114746094
6.336636543273926 7.31145715713501 -60.88079833984375
-7.708396911621094 -5.6254167556762695 65.82137298583984
-9.600671768188477 16.29770278930664 122.45365905761719
13.214977264404297 39.77433395385742 -81.49053955078125
-8.177128791809082 -6.3170671463012695 68.90335083007812
3.1332602500915527 6.113945007324219 -29.756999969482422
-4.6208343505859375 51.289310455322266 145.9560089111328
-7.298203468322754 6.3340678215026855 80.13021087646484
-7.684612274169922 2.4473941326141357 78.32466125488281
-8.280872344970703 -5.647179126739502 71.43528747558594
-8.195486068725586 25.50263786315918 120.51614379882812
-5.20247745513916 63.176116943359375 147.97560119628906
-8.090536117553711 -2.447939157485962 74.48289489746094
-6.80263090133667 9.715911865234375 81.00345611572266
-10.17066764831543 16.405750274658203 126.68829345703125
-9.126036643981934 27.113513946533203 139.7485809326172
-4.091940879821777 65.55766296386719 147.94976806640625
-2.4516491889953613 77.10821533203125 141.6573944091797
-10.537117004394531 27.65189552307129 139.67298889160156
-1.2409119606018066 82.06877136230469 136.24859619140625
-8.528212547302246 19.653030395507812 137.76400756835938
-7.955523490905762 17.549636840820312 136.60621643066406
-9.36890697479248 15.698341369628906 134.69622802734375
-0.13936221599578857 85.4640121459961 129.62130737304688
-8.321163177490234 32.15037155151367 131.53273010253906
-7.098171234130859 40.56271743774414 130.69566345214844
-6.048812389373779 46.68424987792969 130.61582946777344
-10.02413272857666 19.997629165649414 130.36866760253906
-5.231632232666016 51.55809020996094 129.74746704101562
-9.921971321105957 17.29172134399414 128.99468994140625
0.6973936557769775 86.89557647705078 123.37326049804688
-3.853778839111328 57.372074127197266 124.49655151367188
-7.009830951690674 14.552724838256836 123.66133880615234
-3.223966121673584 60.084529876708984 122.182861328125
-6.550522804260254 29.5067081451416 120.9833984375
-2.8444101810455322 61.0544548034668 119.7413558959961
-6.1344146728515625 26.607635498046875 121.49858856201172
1.2715554237365723 86.69571685791016 116.46728515625
-6.704349517822266 23.82608985900879 120.3930892944336
-4.380177974700928 50.36963653564453 118.9706802368164
-2.8428733348846436 59.784950256347656 117.72543334960938
-3.2814903259277344 56.47084045410156 117.09180450439453
-5.044302463531494 43.37678527832031 116.50617218017578
-2.1950576305389404 54.15156555175781 112.42938995361328
2.791759490966797 84.10090637207031 97.26862335205078
-4.4443039894104 29.891130447387695 91.61895751953125
-4.928263187408447 26.987276077270508 88.48954772949219
3.713125467300415 81.67388916015625 83.67644500732422
4.941788673400879 75.63880157470703 61.09552001953125
5.77131986618042 74.1262435913086 50.899742126464844
-5.605449199676514 -2.7663896083831787 53.79133987426758
-7.345193862915039 -3.955080986022949 50.20989227294922
-4.32361364364624 -6.208797454833984 44.43901824951172
6.265898704528809 71.80353546142578 41.27631759643555
6.648168087005615 68.48217010498047 33.00579833984375
-4.434151649475098 -6.478438854217529 29.229183197021484
7.165913105010986 65.17098999023438 26.661083221435547
-3.168123245239258 -7.759196758270264 15.224300384521484
-2.4282407760620117 -7.006909370422363 7.051258087158203
-0.9299522638320923 -4.44968843460083 -5.193849086761475
11.194375038146973 67.49540710449219 -16.589162826538086
12.060285568237305 69.433837890625 -24.547101974487305
3.947178602218628 7.383059978485107 -28.426647186279297
12.95024585723877 71.08485412597656 -29.639629364013672
3.6758151054382324 4.306441783905029 -30.010601043701172
13.57800006866455 72.16487884521484 -34.503353118896484
14.64072036743164 71.52716827392578 -46.661678314208984
4.894075393676758 3.1332263946533203 -48.440494537353516
13.625511169433594 64.16963958740234 -72.98213958740234
18.01209259033203 63.32395935058594 -73.34724426269531
17.580047607421875 56.79890060424805 -78.19282531738281
16.808025360107422 58.34831237792969 -84.95160675048828
16.543163299560547 34.82804489135742 -121.1965103149414
15.439611434936523 35.58134078979492 -121.99314880371094
-6.315079212188721 38.912166595458984 142.3449249267578
-6.693070411682129 34.75593566894531 117.96135711669922
16.019819259643555 54.5443000793457 -83.44374084472656
16.96377944946289 36.3699836730957 -122.16191864013672
-8.085431098937988 14.760024070739746 123.21623992919922
14.020476341247559 27.427175521850586 -82.3469009399414
-2.4026038646698 52.3953857421875 114.07067108154297
-10.90326976776123 14.259279251098633 130.31871032714844
-9.780563354492188 12.841950416564941 128.2279815673828
17.350522994995117 55.33498001098633 -83.00633239746094
17.548025131225586 60.81897735595703 -79.77012634277344
17.44898796081543 35.70954513549805 -121.31535339355469
-1.5531392097473145 54.98623275756836 114.04277038574219
4.739038467407227 5.985673904418945 -37.97325134277344
-7.271367073059082 20.812271118164062 120.63725280761719
-7.58725643157959 18.145252227783203 121.52352905273438
7.062953472137451 4.070316791534424 -50.37533950805664
-3.0104711055755615 48.493385314941406 113.1720199584961
-7.466240882873535 16.827701568603516 127.3011474609375
-6.90176248550415 15.171607971191406 124.15365600585938
-5.6938796043396 25.337114334106445 121.372802734375
-2.952920436859131 -4.6732892990112305 50.45078659057617
18.2448673248291 64.95941925048828 -69.10099029541016
16.029781341552734 38.62257385253906 -82.6672134399414
-2.7921595573425293 42.65591049194336 106.0428695678711
-5.5316362380981445 17.97162628173828 83.2846908569336
18.063934326171875 56.848388671875 -84.38047790527344
-1.091055154800415 27.27379608154297 88.62431335449219
-2.043785810470581 69.71044921875 146.4779815673828
17.961864471435547 56.225887298583984 -83.36463165283203
-6.3541340827941895 21.77611541748047 119.16925811767578
-6.700587749481201 19.90032386779785 118.90320587158203
-3.053892135620117 54.3486328125 146.71792602539062
5.6615142822265625 5.837066650390625 -33.097145080566406
14.67817497253418 31.64490509033203 -82.89712524414062
-8.435930252075195 19.467729568481445 129.99766540527344
7.5559797286987305 7.953194618225098 -52.60755920410156
-6.8147454261779785 16.79201316833496 122.62709045410156
-0.314255952835083 51.9169807434082 113.7391128540039
6.941283226013184 8.521153450012207 -37.7963981628418
-0.07397592067718506 75.6656265258789 142.2359619140625
5.894927501678467 7.6401591300964355 -28.289047241210938
-6.636077404022217 31.934892654418945 131.20458984375
-2.6741762161254883 36.424068450927734 99.7156982421875
5.039319038391113 5.846863269805908 -29.545238494873047
-4.381486415863037 -7.399965286254883 66.0499267578125
0.5925217866897583 79.20111083984375 138.80368041992188
13.552963256835938 23.569185256958008 -81.40606689453125
-6.323829650878906 -4.379227638244629 73.97550201416016
-5.070091247558594 -7.353246688842773 68.96763610839844
-5.668127059936523 5.437346458435059 81.0409927368164
1.2452161312103271 82.9051284790039 133.9527587890625
3.1270735263824463 86.0080795288086 118.04881286621094
-5.3075408935546875 -6.6778788566589355 71.55300903320312
-4.35712194442749 -1.1492197513580322 78.02424621582031
16.580842971801758 50.701961517333984 -79.35247802734375
-4.472188472747803 1.9623774290084839 80.59101867675781
-6.0432538986206055 -1.860153079032898 75.5468978881836
-3.9907665252685547 35.54860305786133 118.2437973022461
19.032941818237305 60.221195220947266 -76.989990234375
7.965377330780029 6.910885810852051 -26.861602783203125
2.7713918685913086 84.98773193359375 127.69860076904297
-1.9456584453582764 64.0736312866211 147.60365295410156
-1.2726423740386963 49.67074203491211 112.77775573730469
2.7494473457336426 86.07247924804688 123.48438262939453
-1.2267298698425293 50.3482551574707 119.75968170166016
11.10621166229248 10.375061988830566 -74.64141845703125
11.683527946472168 61.83293533325195 17.48630142211914
-2.4425902366638184 42.81937789916992 120.30441284179688
8.100362777709961 4.694424629211426 -59.53197479248047
-4.700443744659424 35.586524963378906 121.29464721679688
5.3520121574401855 82.23087310791016 92.70364379882812
-4.255865097045898 -6.2177557945251465 62.2700080871582
9.322317123413086 2.975969076156616 -62.23365020751953
18.452924728393555 56.26544189453125 -77.20516967773438
7.14594030380249 74.04080200195312 60.39931106567383
12.055807113647461 17.97882080078125 -78.44678497314453
7.96853494644165 73.0978775024414 51.595123291015625
16.44072723388672 45.66679000854492 -81.40765380859375
-2.867604970932007 -4.409421920776367 53.91958999633789
0.22293567657470703 55.66742706298828 118.4791259765625
-7.8476762771606445 14.664114952087402 132.21200561523438
-2.8016090393066406 40.739173889160156 117.24183654785156
-2.4497997760772705 17.053813934326172 84.35213470458984
8.616432189941406 71.39347839355469 43.71686935424805
6.863771915435791 76.50343322753906 68.92703247070312
-5.8405585289001465 16.565462112426758 126.1098403930664
6.031656742095947 80.61708068847656 84.5474624633789
8.743694305419922 68.35124206542969 35.05944061279297
-0.8128684759140015 53.328983306884766 115.32498931884766
10.038333892822266 7.230427265167236 -71.374267578125
8.431797981262207 6.844287395477295 -55.34673309326172
18.76580238342285 58.57449722290039 -78.49073028564453
7.3734211921691895 9.610864639282227 -34.53834915161133
-1.1322216987609863 -6.775444507598877 29.195085525512695
-7.223538398742676 12.937448501586914 128.5111083984375
-6.470954418182373 24.18596076965332 138.1703338623047
20.421031951904297 67.54064178466797 -58.36177062988281
-0.3639618158340454 55.39641189575195 113.68643188476562
4.070959091186523 84.23551177978516 104.23460388183594
-6.858907699584961 19.171541213989258 128.6311798095703
-7.397970199584961 32.292884826660156 140.741943359375
-2.1337695121765137 12.110603332519531 83.11953735351562
0.18876111507415771 57.19607925415039 115.96322631835938
0.33739107847213745 58.16127395629883 121.8378677368164
0.7283036708831787 70.89643096923828 145.17544555664062
6.0413031578063965 80.53912353515625 91.79391479492188
-1.114255428314209 56.08333206176758 124.59555053710938
10.178264617919922 3.4125568866729736 -66.54875946044922
-3.021761894226074 28.19708824157715 123.44708251953125
4.917966365814209 83.26065826416016 112.80049133300781
-2.4674649238586426 35.70756530761719 122.44924926757812
8.02410888671875 10.569072723388672 -38.583675384521484
6.912357807159424 4.776532173156738 -39.165916442871094
2.521472930908203 83.3375015258789 131.372802734375
9.33915901184082 6.767490386962891 -52.36984634399414
-5.00000524520874 31.81012725830078 130.06903076171875
18.121353149414062 54.39046096801758 -77.34947204589844
-3.4969024658203125 6.191854476928711 81.61302185058594
0.7399941682815552 57.40892028808594 119.00955200195312
-6.3138251304626465 15.39975643157959 123.5302734375
3.9946625232696533 85.13102722167969 120.40143585205078
13.422669410705566 64.79488372802734 -5.6245574951171875
7.659450531005859 2.5589494705200195 -48.121273040771484
0.9197409749031067 58.26654815673828 120.53233337402344
-4.957372188568115 18.4596004486084 124.38108825683594
-4.997703552246094 19.510656356811523 122.86172485351562
-0.9009836912155151 45.05332946777344 115.63404846191406
-5.3026509284973145 19.537656784057617 126.56828308105469
20.61374282836914 60.837799072265625 -73.20046997070312
-5.451786994934082 20.371662139892578 119.63663482666016
7.531615734100342 76.49005889892578 77.3958511352539
7.223982810974121 2.662456512451172 -41.36799240112305
-5.863078594207764 19.58979606628418 137.10740661621094
4.275518417358398 84.06428527832031 121.51577758789062
8.260398864746094 73.2671127319336 63.746673583984375
7.488544940948486 2.1807076930999756 -44.082942962646484
-0.7574306726455688 21.877477645874023 87.06758117675781
-0.7027925252914429 30.757875442504883 91.42364501953125
-2.274348497390747 -6.592605113983154 41.41917037963867
-3.4530715942382812 40.031131744384766 130.50111389160156
19.632770538330078 70.21842956542969 -47.13847732543945
-6.491204738616943 16.38031578063965 134.22134399414062
-4.973028182983398 39.106693267822266 141.8778533935547
-6.03194522857666 20.26629066467285 132.75343322753906
16.989957809448242 71.04332733154297 -33.65918731689453
-0.6530612707138062 37.717140197753906 100.77815246582031
3.583906888961792 -0.5271384716033936 -15.435839653015137
0.5647100210189819 -7.911271095275879 15.818147659301758
17.63765525817871 71.51631927490234 -39.32615280151367
13.210801124572754 1.866645097732544 -19.124216079711914
3.9089770317077637 -3.010077714920044 -11.01464557647705
-5.710104465484619 25.622791290283203 129.3467559814453
13.960798263549805 18.339502334594727 -79.837890625
16.559932708740234 69.87439727783203 -28.89744758605957
15.799485206604004 68.42701721191406 -24.377857208251953
1.1936405897140503 54.69746398925781 113.37397003173828
-4.803130149841309 17.52701187133789 123.6346435546875
15.183026313781738 66.84378814697266 -17.61794662475586
-4.425814151763916 25.96884536743164 127.39643096923828
8.747613906860352 72.28096771240234 58.74794387817383
9.383467674255371 5.475359916687012 -49.52384567260742
2.6688685417175293 80.06331634521484 135.9950714111328
3.3907663822174072 -4.842275619506836 -5.212800979614258
4.329758644104004 82.948486328125 126.7701187133789
-2.7870731353759766 35.093719482421875 119.35187530517578
8.474771499633789 6.767082214355469 -38.75983810424805
-3.548330783843994 -6.636810302734375 72.02296447753906
-4.038542747497559 26.420198440551758 122.2144546508789
-3.8793797492980957 -3.5981602668762207 74.62105560302734
1.5333973169326782 -7.294927597045898 7.692751884460449
-1.6602821350097656 35.38460922241211 123.47734069824219
-4.885902404785156 24.161020278930664 133.35751342773438
1.084995150566101 46.899658203125 108.2564468383789
-5.980279922485352 15.14850902557373 131.37689208984375
-0.17932796478271484 68.17221069335938 146.6116943359375
-2.244990348815918 -6.101382255554199 57.107521057128906
-3.0482559204101562 34.76861572265625 129.2836456298828
1.2423298358917236 54.05583953857422 115.86080932617188
-1.8399436473846436 46.61754608154297 130.82351684570312
-3.8721160888671875 23.879793167114258 122.29804992675781
10.376991271972656 7.8619704246521 -48.23871612548828
0.14688092470169067 55.1141471862793 123.73059844970703
-1.0501298904418945 -5.751655578613281 46.734596252441406
9.703189849853516 2.5899620056152344 -58.03016662597656
9.931032180786133 71.19867706298828 54.618587493896484
-2.39162540435791 30.90203285217285 126.70075225830078
6.713144302368164 80.73460388183594 104.09281158447266
-0.4101294279098511 47.734779357910156 120.6866683959961
1.9475703239440918 74.58657836914062 142.19253540039062
12.972684860229492 11.444206237792969 -76.16033172607422
-2.8794798851013184 31.347089767456055 121.81598663330078
-0.418471097946167 56.99686813354492 146.83575439453125
0.8104864358901978 38.66598892211914 100.93980407714844
9.425865173339844 10.516061782836914 -41.18812561035156
-5.466574668884277 18.515249252319336 134.62782287597656
3.9006428718566895 79.44757080078125 133.96206665039062
-4.790413856506348 22.688213348388672 135.70297241210938
10.184236526489258 4.976629257202148 -46.862213134765625
5.164938449859619 82.87196350097656 121.78338623046875
-1.4197030067443848 39.819854736328125 117.82806396484375
19.90880584716797 45.5302734375 -80.99041748046875
-5.076895713806152 17.049440383911133 124.35652923583984
2.427999973297119 57.3263053894043 116.87883758544922
-5.173559665679932 19.2900333404541 133.43687438964844
3.170454978942871 59.588748931884766 117.12956237792969
-0.8955181837081909 49.275123596191406 144.80873107910156
-3.9954848289489746 18.935157775878906 124.81605529785156
-5.103132247924805 15.058528900146484 126.14793395996094
-1.6885454654693604 -5.907700061798096 54.601619720458984
1.5599865913391113 67.40855407714844 147.81764221191406
-2.6068429946899414 27.89048194885254 123.63195037841797
8.823198318481445 3.932708501815796 -41.106346130371094
6.450624942779541 80.54173278808594 98.64561462402344
-4.4730544090271 31.844573974609375 138.67576599121094
12.059000015258789 62.39458465576172 23.188215255737305
21.091793060302734 57.512351989746094 -74.3519515991211
-0.30036675930023193 51.4649772644043 129.75677490234375
11.358377456665039 68.86905670166016 44.2259407043457
8.356550216674805 77.9530029296875 90.31787872314453
-5.226059436798096 20.610424041748047 134.9565887451172
0.8191968202590942 65.48641204833984 146.90234375
-1.5666122436523438 40.9057731628418 140.5825653076172
-1.0027683973312378 38.73321533203125 122.25143432617188
9.152701377868652 3.3564908504486084 -43.944740295410156
23.50031852722168 63.87718200683594 -66.49220275878906
10.467491149902344 9.442524909973145 -44.56795883178711
2.332014799118042 56.246498107910156 114.48978424072266
5.937993049621582 81.1003646850586 117.25384521484375
1.0830669403076172 52.92780303955078 122.1537094116211
-3.182036876678467 27.725801467895508 135.18124389648438
-4.723830223083496 17.92291831970215 129.4990997314453
8.655367851257324 75.88016510009766 79.85208892822266
-2.747999668121338 25.19084358215332 125.5488052368164
0.17600518465042114 37.210018157958984 121.4677505493164
-3.340707778930664 22.48230743408203 123.29379272460938
0.458920955657959 46.56215286254883 142.34432983398438
9.978677749633789 6.280612468719482 -40.96730422973633
5.13723087310791 80.92110443115234 126.25001525878906
11.584813117980957 63.84962844848633 29.2281494140625
22.70492935180664 62.47655487060547 -69.4604721069336
-0.6553422212600708 -5.625995635986328 49.52549362182617
-1.1602072715759277 -8.46130657196045 62.4239387512207
-4.4452385902404785 17.52591323852539 132.4826202392578
-1.5895428657531738 38.72077178955078 128.5487823486328
18.852346420288086 30.566364288330078 -83.64372253417969
4.364322662353516 78.0160140991211 135.44952392578125
2.0871286392211914 -6.508977890014648 29.552486419677734
5.548979759216309 80.45529174804688 122.0307388305664
1.2780241966247559 31.079357147216797 91.07105255126953
1.8708586692810059 70.04409790039062 146.4054412841797
0.8081115484237671 62.64925003051758 146.4975128173828
13.007387161254883 61.10873031616211 12.967887878417969
3.0507845878601074 47.84148406982422 114.03459930419922
-3.927252769470215 19.143529891967773 134.2012939453125
0.8805610537528992 38.8076057434082 120.25959014892578
17.90625 25.925512313842773 -83.01660919189453
-1.6140706539154053 32.55438232421875 125.17381286621094
-3.8250017166137695 18.04964828491211 126.06173706054688
2.6447463035583496 52.587196350097656 111.90472412109375
12.770956993103027 5.017260551452637 -71.79368591308594
0.7409594058990479 13.707794189453125 83.08259582519531
-4.439652442932129 20.529748916625977 132.384033203125
11.700043678283691 67.60054779052734 38.35628128051758
-1.7709391117095947 1.885912537574768 80.58540344238281
2.7126035690307617 74.02408599853516 142.03794860839844
11.909883499145508 65.81829071044922 33.86702346801758
-0.6177067756652832 -10.09576416015625 49.5662841796875
17.187572479248047 21.621049880981445 -81.98829650878906
-2.9637441635131836 25.608400344848633 131.88758850097656
10.270479202270508 5.218735218048096 -43.72007751464844
3.219569683074951 56.679561614990234 116.01207733154297
-2.12431263923645 27.439245223999023 125.68729400634766
7.94179105758667 77.95333862304688 105.7324447631836
14.74452018737793 61.38566970825195 6.529335975646973
-2.0885159969329834 26.13212776184082 125.22197723388672
16.80069351196289 15.075233459472656 -79.60821533203125
2.1161770820617676 37.037845611572266 97.17481231689453
0.20468878746032715 38.76987075805664 126.23218536376953
2.9860620498657227 71.14032745361328 145.11305236816406
9.749349594116211 75.10415649414062 84.49976348876953
10.88626766204834 70.2782974243164 66.32025146484375
3.385767936706543 41.7063102722168 100.68608856201172
-0.8146626949310303 -9.854151725769043 54.048011779785156
-0.5210568904876709 38.61577224731445 137.4073486328125
0.30557137727737427 -5.964389801025391 47.27794647216797
3.4681577682495117 53.61974334716797 113.78750610351562
-2.698716163635254 23.53325080871582 128.3365478515625
6.291371822357178 79.38641357421875 126.89854431152344
1.2731760740280151 6.713696002960205 81.60139465332031
8.294608116149902 78.08321380615234 98.03256225585938
-0.5666713714599609 32.850154876708984 123.7691421508789
-2.0145885944366455 24.94767951965332 125.90211486816406
2.540431022644043 68.49083709716797 152.55075073242188
0.6681373715400696 48.388214111328125 143.80642700195312
21.432878494262695 53.690025329589844 -75.91858673095703
14.45238971710205 6.902933597564697 -74.22024536132812
1.2974681854248047 41.286991119384766 116.80873107910156
-1.9900646209716797 27.491947174072266 129.33633422851562
-0.14669454097747803 -9.05142593383789 65.2733383178711
3.0507237911224365 66.14773559570312 146.91964721679688
7.004487991333008 78.68555450439453 122.77043151855469
0.6929423213005066 45.32074737548828 128.19448852539062
4.78159236907959 56.09491729736328 114.62167358398438
3.293316125869751 70.08998107910156 150.9687957763672
-0.742706298828125 -5.771079063415527 71.85157775878906
1.54128098487854 -5.623990535736084 40.841129302978516
7.36066198348999 75.73268127441406 113.91299438476562
-1.3453803062438965 -1.3084754943847656 78.56110382080078
3.6918091773986816 30.333932876586914 91.18347930908203
22.44487953186035 60.39085006713867 -71.59378051757812
1.2649494409561157 54.07807922363281 145.9293212890625
4.401178359985352 60.190269470214844 118.30636596679688
4.332749366760254 46.57450866699219 103.70114135742188
1.3716621398925781 44.962982177734375 123.86477661132812
0.6200931072235107 39.62055206298828 125.09030151367188
2.114500045776367 44.15143966674805 115.16973114013672
2.696258306503296 68.01673126220703 146.18862915039062
-0.10721004009246826 -7.994410991668701 67.79656982421875
2.2929012775421143 21.41701316833496 86.73490142822266
3.615889072418213 36.11724853515625 95.16326141357422
13.579412460327148 0.2696743905544281 -68.11634063720703
4.123835563659668 72.18340301513672 142.11553955078125
12.429065704345703 67.2420425415039 58.92375183105469
7.981787204742432 74.99343872070312 114.64801025390625
-0.03515613079071045 -13.968628883361816 51.994625091552734
2.0829715728759766 50.94857406616211 127.56538391113281
6.4041972160339355 65.25733947753906 120.08003997802734
2.3863749504089355 66.96623992919922 150.5924530029297
0.10322046279907227 -11.090383529663086 59.69441604614258
16.53982925415039 62.72920227050781 -2.1625545024871826
4.307130336761475 54.25178909301758 110.31716918945312
5.9427714347839355 63.400917053222656 118.65985870361328
-0.37985801696777344 -8.173544883728027 62.109127044677734
2.505214214324951 51.17371368408203 124.93324279785156
12.393900871276855 67.8338851928711 47.64179229736328
0.574669361114502 34.298763275146484 128.48724365234375
-1.2679920196533203 32.32128143310547 134.4645233154297
0.6698440313339233 -10.647374153137207 47.07671356201172
12.571456909179688 10.647412300109863 -39.23163604736328
9.493698120117188 75.3633804321289 91.12804412841797
3.2200188636779785 64.41010284423828 144.6242218017578
1.0025845766067505 35.22586441040039 125.04354095458984
0.8550333976745605 49.84492874145508 145.13279724121094
4.711676597595215 -7.279261589050293 16.466196060180664
2.94844913482666 67.5022964477539 154.03810119628906
12.322924613952637 -0.4678824543952942 -56.59316635131836
2.831643581390381 60.96060562133789 144.56385803222656
-0.07647180557250977 33.43567657470703 132.5338134765625
3.6097710132598877 66.58867645263672 146.3994140625
1.9179185628890991 -5.775815010070801 45.27082061767578
9.663909912109375 72.82720947265625 103.14759063720703
0.9938980340957642 -14.539460182189941 48.25749969482422
20.996919631958008 37.711971282958984 -82.80418395996094
6.103806972503662 75.26641845703125 133.2599334716797
12.42611312866211 9.571680068969727 -41.28947448730469
11.972124099731445 8.989845275878906 -32.658992767333984
18.75387191772461 65.04442596435547 -16.067371368408203
13.3777494430542 0.10894905030727386 -54.17241287231445
4.246929168701172 42.069984436035156 99.61892700195312
4.673956871032715 71.0516357421875 144.5531768798828
5.009337425231934 70.9048843383789 149.72723388671875
4.022197723388672 67.90922546386719 145.15602111816406
0.882120668888092 48.9871940612793 141.1037139892578
2.687512159347534 40.243316650390625 118.0142593383789
19.601673126220703 66.50690460205078 -23.747520446777344
11.948382377624512 7.16591739654541 -46.37845230102539
22.342247009277344 69.61178588867188 -45.323020935058594
8.727093696594238 -1.139024257659912 -14.469998359680176
12.762432098388672 -3.40861177444458 -60.621700286865234
12.28175163269043 67.88761138916016 69.99172973632812
3.86802077293396 56.13559341430664 144.50357055664062
1.1543450355529785 39.64582061767578 135.1492156982422
2.814432382583618 45.70237731933594 138.38717651367188
21.143617630004883 69.13570404052734 -32.22536087036133
8.237425804138184 75.13243103027344 117.98866271972656
20.523019790649414 67.7564468383789 -27.664152145385742
2.3163983821868896 38.27486801147461 122.687744140625
4.405597686767578 -5.37934684753418 35.37001037597656
8.390583038330078 -3.059037685394287 -10.627126693725586
4.20989990234375 68.62222290039062 152.9742431640625
21.940141677856445 70.13275146484375 -37.95098114013672
16.560104370117188 3.866154193878174 -73.56632232666016
7.433197498321533 76.52983093261719 126.8973159790039
13.837295532226562 66.16053009033203 40.865196228027344
2.8251113891601562 14.662042617797852 83.77903747558594
9.290548324584961 70.73053741455078 107.54430389404297
0.7381926774978638 -15.204029083251953 52.26908493041992
6.0489501953125 -6.80648946762085 8.3378324508667
-13.123007774353027 -97.69749450683594 64.92229461669922
19.954387664794922 7.807003498077393 -77.63919067382812
7.954819202423096 -4.9531636238098145 -3.7067360877990723
6.868076801300049 58.37753677368164 111.3913803100586
1.7656898498535156 38.018150329589844 131.84027099609375
5.690118312835693 53.12920379638672 107.80068969726562
6.183289527893066 69.76969146728516 143.89889526367188
2.3084018230438232 48.59095001220703 142.3351287841797
7.273324012756348 62.557621002197266 115.86458587646484
4.197474479675293 62.255069732666016 142.10377502441406
-13.179121971130371 -97.73635864257812 69.78172302246094
13.854944229125977 -5.046684741973877 -57.707984924316406
13.84650993347168 65.75218200683594 49.76639938354492
12.011775016784668 68.39199829101562 79.4500503540039
25.04376792907715 55.05198669433594 -73.03253936767578
4.4646382331848145 49.25017547607422 142.6193084716797
13.505354881286621 -3.8254034519195557 -63.30741500854492
3.649848699569702 52.37334442138672 145.5188751220703
2.2208364009857178 48.08428955078125 140.8612823486328
3.7591333389282227 44.14247131347656 115.30284881591797
17.20758628845215 59.6778450012207 27.7560977935791
2.4682774543762207 2.912794828414917 80.21595001220703
16.03035545349121 59.70548629760742 13.813048362731934
2.234466552734375 -10.62850284576416 45.56588363647461
7.306811332702637 65.6689224243164 120.75543212890625
1.0572015047073364 -15.967508316040039 50.1936149597168
0.2825716733932495 -20.518625259399414 52.69015121459961
14.518040657043457 64.40969848632812 36.46120834350586
-12.228411674499512 -98.82759857177734 61.535587310791016
0.8601114749908447 -8.5894136428833 64.70945739746094
4.924466133117676 49.09505081176758 114.20873260498047
8.295337677001953 75.2630386352539 122.59652709960938
7.028967380523682 71.49858093261719 133.5335235595703
-12.19798755645752 -95.16213989257812 67.0350570678711
4.630028247833252 58.78290557861328 141.77825927734375
5.161571025848389 68.58329772949219 156.40480041503906
4.275530815124512 50.649024963378906 138.88653564453125
0.44474679231643677 -21.430709838867188 51.111263275146484
3.72430682182312 24.545543670654297 87.93863677978516
4.631038665771484 -4.306155681610107 41.8356819152832
7.662958145141602 60.981719970703125 119.130126953125
4.66339111328125 65.99107360839844 143.6553497314453
3.2387139797210693 38.708282470703125 125.05988311767578
-9.919195175170898 -94.83428955078125 57.3918342590332
6.235966682434082 55.8033332824707 115.20333099365234
10.190340042114258 72.90294647216797 98.66708374023438
-12.372472763061523 -97.74642181396484 68.178466796875
20.404380798339844 16.538761138916016 -80.73283386230469
5.257809162139893 67.5823974609375 158.6520233154297
1.0746116638183594 -17.439756393432617 54.54814529418945
3.475114583969116 49.825618743896484 144.0055694580078
3.9241321086883545 43.1255989074707 133.80123901367188
7.986242294311523 67.8108139038086 121.12846374511719
5.266388416290283 65.94596099853516 142.9730224609375
7.093518257141113 65.42755889892578 124.34029388427734
2.0079073905944824 -17.05705451965332 48.72844314575195
3.9470815658569336 41.18144989013672 117.25261688232422
-10.580667495727539 -93.21715545654297 60.92082214355469
14.191841125488281 -6.634608745574951 -61.019813537597656
4.349681377410889 51.32394027709961 142.82228088378906
6.256516933441162 48.097381591796875 103.92239379882812
3.9011073112487793 -5.929800510406494 70.7647705078125
5.3635993003845215 67.01163482666016 145.35830688476562
1.891514778137207 -0.8668673634529114 77.63982391357422
1.5107460021972656 -13.346845626831055 62.49837875366211
9.457855224609375 70.26445770263672 109.6321792602539
-11.45832347869873 -99.06006622314453 61.59988021850586
1.502485990524292 -11.105920791625977 63.97670364379883
-11.26703929901123 -98.1364974975586 62.2388801574707
8.305116653442383 73.77696990966797 126.04650115966797
-10.392388343811035 -92.01253509521484 63.790897369384766
-10.683491706848145 -92.26847839355469 60.44533157348633
5.730551719665527 68.53838348388672 140.03024291992188
1.2518588304519653 -17.137428283691406 57.634742736816406
5.693317890167236 65.88198852539062 139.7570037841797
4.486922264099121 -4.859489917755127 44.32185363769531
1.8035428524017334 -15.354450225830078 61.63142013549805
6.604157447814941 70.4834213256836 149.3131866455078
6.248363971710205 44.13931655883789 100.42767333984375
3.3893606662750244 -15.947669982910156 46.22624969482422
6.2305707931518555 69.18649291992188 137.1448211669922
8.905988693237305 73.06973266601562 119.00740814208984
3.948350191116333 50.962039947509766 144.68161010742188
5.386560440063477 30.4531307220459 90.81097412109375
6.005094051361084 38.87495803833008 97.02661895751953
24.93744659423828 44.2612190246582 -80.04435729980469
21.712980270385742 25.105791091918945 -82.845703125
7.499208450317383 55.220340728759766 107.45950317382812
5.648626804351807 62.65163040161133 140.9502410888672
21.18779945373535 20.790252685546875 -81.8833999633789
17.524490356445312 59.699737548828125 8.84937858581543
5.785650253295898 47.968143463134766 115.25409698486328
-9.608656883239746 -89.70890045166016 60.5997200012207
0.055516719818115234 -36.96867752075195 54.921573638916016
-9.90807819366455 -94.53833770751953 56.39973831176758
8.592147827148438 71.76778411865234 122.76219940185547
-9.337244033813477 -92.6070327758789 56.36632537841797
-9.464032173156738 -89.6845474243164 64.67398071289062
4.537672996520996 40.92797088623047 118.8589096069336
7.512704849243164 69.69293975830078 131.98194885253906
9.23111629486084 69.19977569580078 112.75576782226562
7.357839107513428 -5.043825626373291 26.90098762512207
21.140642166137695 11.231926918029785 -79.50968170166016
15.751208305358887 -4.886448383331299 -66.24993896484375
23.003652572631836 29.775177001953125 -83.18856811523438
7.206793785095215 65.42000579833984 129.70675659179688
6.183929920196533 67.30345153808594 143.1994171142578
4.732778549194336 48.20690155029297 136.61973571777344
8.474166870117188 62.68914794921875 111.8946762084961
4.894152641296387 48.682212829589844 137.8775177001953
0.485378623008728 -26.792377471923828 58.078582763671875
3.892512083053589 40.65196990966797 128.98895263671875
-2.7218754291534424 -46.8089599609375 55.322914123535156
12.405659675598145 66.52947235107422 90.30367279052734
8.454336166381836 69.38948059082031 123.27875518798828
14.606331825256348 0.3236786425113678 -50.52497482299805
0.3435511589050293 -29.519960403442383 55.78056716918945
8.89635944366455 69.41820526123047 118.15283203125
6.5824480056762695 62.89070129394531 138.0754852294922
-9.646584510803223 -98.36468505859375 73.67204284667969
3.413280487060547 7.513849258422852 81.54168701171875
2.0549166202545166 -8.57976245880127 67.24645233154297
6.9864959716796875 64.64326477050781 134.2493133544922
1.3104323148727417 -31.16927146911621 49.625789642333984
14.926054000854492 60.420433044433594 79.28937530517578
15.972360610961914 61.15160369873047 32.3743782043457
-2.7071444988250732 -46.35896682739258 57.7484245300293
-10.62614631652832 -97.7039566040039 72.12730407714844
15.405263900756836 64.28844451904297 43.79268264770508
7.667767524719238 56.518287658691406 118.06570434570312
8.448963165283203 61.71571731567383 122.87574005126953
5.7825541496276855 57.4495849609375 141.47520446777344
-1.7023518085479736 -41.65058898925781 55.69853210449219
9.287202835083008 63.791378021240234 109.45600128173828
7.881200313568115 44.9070930480957 99.17308044433594
6.283043384552002 68.65312957763672 153.7725830078125
-12.005724906921387 -97.39132690429688 71.83851623535156
5.0798492431640625 50.05735778808594 143.3909912109375
14.602684020996094 62.9441032409668 60.32289123535156
-1.9396228790283203 -43.60471725463867 56.89059829711914
7.695435047149658 69.44882202148438 147.8164825439453
10.263964653015137 66.3829345703125 105.50587463378906
4.172494888305664 -11.502338409423828 44.896705627441406
1.5544776916503906 -20.125324249267578 60.975341796875
4.5786871910095215 40.542171478271484 125.64095306396484
27.721107482910156 57.85390090942383 -70.01716613769531
-10.3558349609375 -99.22480773925781 58.24399185180664
-1.6122066974639893 -42.12584686279297 59.08650207519531
19.180194854736328 60.01255416870117 2.332707166671753
6.647900104522705 68.25431060791016 158.23439025878906
6.075618267059326 59.45820999145508 137.85653686523438
15.352551460266113 7.295095443725586 -41.35694885253906
-9.284802436828613 -91.38500213623047 65.72875213623047
5.230214595794678 42.11286544799805 121.53753662109375
-2.580400228500366 -51.2310791015625 56.9967155456543
8.268383026123047 65.528076171875 148.7832794189453
0.36002808809280396 -37.2120475769043 52.33198928833008
3.180832624435425 -18.35944366455078 47.777286529541016
6.663970470428467 48.30440139770508 118.36377716064453
-7.896852493286133 -90.01519012451172 56.713890075683594
17.26944351196289 59.185935974121094 21.55756187438965
-6.756097316741943 -98.05071258544922 69.5171890258789
15.353038787841797 -9.240299224853516 -62.698448181152344
10.053808212280273 63.988101959228516 105.71510314941406
-9.685746192932129 -99.74137878417969 59.20185470581055
6.895674705505371 35.96776580810547 94.06519317626953
-1.1509730815887451 -42.10188293457031 53.07076644897461
5.531033515930176 53.158172607421875 139.6312255859375
-2.4637460708618164 -51.68119430541992 54.175296783447266
15.464238166809082 -10.893355369567871 -60.169288635253906
7.739221096038818 23.076091766357422 86.2853012084961
16.156763076782227 9.825255393981934 -37.08635711669922
7.1570000648498535 26.663606643676758 87.50262451171875
6.364229679107666 56.87080383300781 140.15805053710938
13.854022979736328 62.95549392700195 73.65602111816406
7.233158588409424 68.49284362792969 156.1708984375
-1.2538034915924072 -45.536651611328125 51.77909851074219
5.294203281402588 19.271989822387695 85.85907745361328
8.692138671875 46.937259674072266 98.90458679199219
6.269546031951904 54.33728790283203 137.99891662597656
10.55439281463623 64.521484375 101.8338623046875
-1.2969465255737305 -48.853519439697266 50.47005844116211
5.991549491882324 53.94467544555664 143.53421020507812
7.738772869110107 60.97356033325195 129.797607421875
7.257193565368652 67.1611328125 150.42092895507812
3.615576982498169 -13.048542976379395 66.65433502197266
7.673478603363037 65.67121887207031 148.8943328857422
27.97254753112793 65.12555694580078 -57.957706451416016
7.223681449890137 28.993227005004883 88.43467712402344
-6.202782154083252 -78.19808959960938 54.16276168823242
-0.0073645710945129395 -37.53438949584961 58.680145263671875
14.695876121520996 61.428802490234375 66.78892517089844
14.013070106506348 61.7567138671875 83.0850601196289
5.125471115112305 -7.504819393157959 68.46031951904297
16.353118896484375 62.50004196166992 40.036014556884766
-6.709547996520996 -81.13511657714844 55.89918899536133
15.88796615600586 61.000877380371094 58.1691780090332
-0.8911678791046143 -44.365760803222656 59.974639892578125
-9.782509803771973 -98.49092864990234 60.0582275390625
15.160032272338867 -6.923758029937744 -56.1784782409668
8.357793807983398 66.70407104492188 148.11631774902344
0.38646507263183594 -33.84091567993164 58.81871795654297
5.0538763999938965 14.581135749816895 84.49950408935547
-5.916372776031494 -79.64613342285156 51.86231231689453
-5.9313178062438965 -77.3973159790039 57.046875
12.399130821228027 66.4604263305664 92.62762451171875
3.1677820682525635 -10.304415702819824 66.2516860961914
-6.51014518737793 -82.86543273925781 53.27180099487305
7.535900592803955 32.57428741455078 90.23323822021484
6.390468597412109 52.80147171020508 135.85691833496094
18.609521865844727 7.027130126953125 -28.778614044189453
18.049381256103516 -2.6599183082580566 -70.80648040771484
-7.430172920227051 -86.58497619628906 59.68977737426758
23.76972198486328 63.327449798583984 -22.582664489746094
6.914047718048096 48.27881622314453 124.54634857177734
5.260023593902588 49.51033020019531 138.77517700195312
20.906299591064453 60.7745361328125 -6.635200023651123
4.448697566986084 3.7493910789489746 79.62335205078125
6.381476879119873 52.662357330322266 139.3893280029297
2.4858150482177734 -18.51276397705078 63.30681610107422
-8.149575233459473 -95.9908218383789 54.476806640625
1.4193676710128784 -28.276981353759766 61.4271125793457
6.457226753234863 48.53664016723633 129.56436157226562
15.162808418273926 -11.194689750671387 -58.21543884277344
16.735797882080078 -9.345407485961914 -66.44216918945312
8.261756896972656 56.13436508178711 122.85929107666016
-6.622030735015869 -84.0447998046875 58.124263763427734
8.378186225891113 68.60083770751953 151.8853302001953
15.212990760803223 5.369173526763916 -24.878774642944336
0.0508655309677124 -48.443321228027344 48.4869499206543
6.873527526855469 68.4120101928711 161.69744873046875
0.2694419026374817 -47.42607879638672 47.95585250854492
0.7913131713867188 -44.462093353271484 48.29631042480469
8.45213508605957 -3.3424127101898193 34.29692077636719
19.160837173461914 3.8320846557617188 -75.45500183105469
7.895715236663818 55.4328498840332 127.78572082519531
4.030088424682617 0.016550162807106972 77.10981750488281
8.058317184448242 36.79155349731445 92.64937591552734
2.651674270629883 -36.23404312133789 47.80305480957031
-4.851696968078613 -74.66860961914062 55.47610092163086
-1.8628215789794922 -56.448673248291016 53.9229621887207
