NOTE openvision4
VERSION .7
FIELDS x y z
TYPE F F F
COUNT 1 1 1
WIDTH 839
HEIGHT 1
VIEWPOINT 0 0 0 1 0 0 0
POINTS 839
DATA ascii
-14.723603248596191 -90.94126892089844 -0.15269505977630615
-14.64642333984375 -91.95893859863281 -5.754395008087158
-14.896594047546387 21.44831657409668 -10.292678833007812
-14.914777755737305 -93.55802917480469 21.411109924316406
-15.575876235961914 22.296974182128906 -9.053970336914062
-14.809483528137207 52.94822311401367 -10.753448486328125
-12.020707130432129 49.783565521240234 76.8561019897461
-14.116982460021973 19.685441970825195 -10.314903259277344
-14.853981018066406 -53.9696044921875 -23.387786865234375
-15.206056594848633 47.60707092285156 -5.931381702423096
-15.364882469177246 -38.66379165649414 -75.08882904052734
-15.353601455688477 63.88373947143555 -32.304588317871094
-14.731560707092285 56.52159881591797 9.102920532226562
-15.339081764221191 22.804317474365234 2.158362865447998
-13.899504661560059 65.93195343017578 -40.76866912841797
-15.336581230163574 -96.0847396850586 -14.12139892578125
-14.92730712890625 -94.24551391601562 25.133224487304688
-13.784930229187012 -85.96983337402344 92.81861877441406
-14.699620246887207 -101.1404037475586 83.07365417480469
-14.690067291259766 -32.68387222290039 -73.48638153076172
-14.343812942504883 39.00751876831055 17.60852813720703
-14.725276947021484 -93.3079833984375 28.643993377685547
-14.692920684814453 55.013675689697266 35.828102111816406
-15.104368209838867 -98.31932830810547 89.21246337890625
-14.814059257507324 53.76065444946289 58.504676818847656
-15.104820251464844 -92.24250030517578 22.383163452148438
-14.407938957214355 33.289459228515625 13.839195251464844
-14.861908912658691 -91.43356323242188 14.468513488769531
-14.43636703491211 -86.313720703125 4.238204479217529
-14.110884666442871 -80.10566711425781 4.709273815155029
-14.579286575317383 -102.13529205322266 -29.64532470703125
-14.12347412109375 67.47364807128906 29.508655548095703
-14.562369346618652 -96.3675765991211 70.60993194580078
-14.177474021911621 29.279705047607422 12.213844299316406
-13.408059120178223 72.25691223144531 -70.34053802490234
-14.554722785949707 -94.6769790649414 80.70272064208984
-13.564177513122559 60.07184982299805 -71.47058868408203
-14.201451301574707 -94.7170639038086 27.339370727539062
-14.286623001098633 -99.14937591552734 69.56346130371094
-14.750260353088379 -99.15694427490234 89.9723892211914
-13.335865020751953 35.577213287353516 -71.6501235961914
-14.43952751159668 63.8175163269043 -26.232284545898438
-14.852982521057129 -15.801591873168945 -70.74283599853516
-14.565281867980957 -89.45325469970703 1.4151531457901
-14.78957748413086 -94.12873840332031 34.17665481567383
-14.985791206359863 -102.17232513427734 85.00621032714844
-14.069567680358887 -96.79999542236328 67.19615936279297
-14.34254264831543 54.99693298339844 53.407737731933594
-14.049849510192871 25.989612579345703 10.119888305664062
-13.903848648071289 51.104774475097656 4.0908427238464355
-14.624482154846191 58.89680862426758 -14.448837280273438
-14.082205772399902 -90.46531677246094 84.3847885131836
-13.732128143310547 -92.10194396972656 82.32352447509766
-14.535691261291504 62.36751937866211 69.96459197998047
-14.602496147155762 65.0421371459961 60.82778549194336
-14.079066276550293 -85.4560317993164 10.790985107421875
-13.474690437316895 55.121803283691406 30.042884826660156
-14.33950424194336 55.33518981933594 42.758827209472656
-13.895564079284668 -57.69404602050781 -24.00872039794922
-13.84358024597168 49.66098403930664 24.104591369628906
-14.22764778137207 46.952049255371094 1.3561474084854126
-13.907511711120605 -99.96300506591797 89.0300521850586
-14.208266258239746 -99.41658020019531 -21.464256286621094
-14.141528129577637 5.968398094177246 -70.12287139892578
-13.806411743164062 67.675537109375 25.287872314453125
-13.81231689453125 61.97801971435547 16.47454071044922
-14.355081558227539 65.80863952636719 -68.52916717529297
-14.348155975341797 -64.71704864501953 -18.03314971923828
-13.857901573181152 -103.51292419433594 -46.78076934814453
-14.3021821975708 -50.21009063720703 -81.7838363647461
-13.69151782989502 13.555038452148438 -71.0973129272461
-13.471578598022461 -95.98269653320312 82.54633331298828
-14.274182319641113 -56.21958923339844 -83.44184112548828
-13.743490219116211 52.9080696105957 -9.867782592773438
-12.426995277404785 51.956146240234375 68.66539001464844
-13.080060005187988 -77.53300476074219 -5.801903247833252
-13.146233558654785 36.791534423828125 15.55810546875
-13.35896110534668 -95.48672485351562 89.85572052001953
-14.17838191986084 -10.843791961669922 -70.82083892822266
-14.235421180725098 65.11234283447266 39.18693923950195
-13.230430603027344 23.9754638671875 -72.57587432861328
-13.464890480041504 64.10284423828125 54.10115432739258
-13.19422721862793 48.148597717285156 -4.158112049102783
-13.865918159484863 -86.25629425048828 8.285064697265625
-16.10204315185547 7.493365287780762 -10.60931396484375
-11.584235191345215 57.87921142578125 85.64327239990234
-11.480875015258789 40.02538299560547 -73.75138092041016
-12.949141502380371 47.84675216674805 72.43204498291016
-13.761245727539062 57.40473937988281 44.35218811035156
-13.699100494384766 57.35566711425781 52.97599411010742
-13.568679809570312 55.263885498046875 57.054840087890625
-13.470782279968262 45.68164825439453 -1.1815265417099
-12.533658027648926 -0.9871101379394531 -6.928055286407471
-13.546366691589355 72.12678527832031 -53.74498748779297
-12.185310363769531 50.251041412353516 -72.5046157836914
-13.685917854309082 -99.21269989013672 85.09852600097656
-13.851081848144531 -64.08139038085938 -83.77983856201172
-13.610013008117676 -96.08396911621094 -15.097366333007812
-13.121367454528809 64.48124694824219 57.36259841918945
-13.046838760375977 -77.78330993652344 -2.642509937286377
-13.279991149902344 56.35734176635742 34.429901123046875
-13.282133102416992 -92.43151092529297 -10.659095764160156
-12.798812866210938 -89.39595794677734 -7.396782398223877
-13.762760162353516 46.21710968017578 -2.5221714973449707
-13.676846504211426 135.52334594726562 -74.5737075805664
-14.4278564453125 55.832218170166016 63.09720993041992
-12.991630554199219 54.7406120300293 60.49761962890625
-13.355552673339844 -84.75028228759766 0.4200512170791626
-13.545588493347168 132.88645935058594 -73.39244842529297
-12.968121528625488 -89.5926742553711 91.82119750976562
-13.44117546081543 -99.35149383544922 84.47882843017578
-11.07424259185791 49.85798645019531 76.56631469726562
-13.046723365783691 129.33590698242188 -73.14922332763672
-13.563382148742676 -70.94448852539062 -82.98883819580078
-11.70130729675293 63.74651336669922 19.32061004638672
-13.169349670410156 -93.73823547363281 84.54332733154297
-12.96645450592041 65.19313049316406 35.31999206542969
-13.204468727111816 64.39280700683594 39.60776901245117
-12.847431182861328 128.61471557617188 -74.22049713134766
-13.388032913208008 64.90172576904297 -31.606918334960938
-12.778276443481445 -80.33917236328125 1.029380440711975
-12.161260604858398 42.23890686035156 18.822967529296875
-12.319703102111816 60.18381118774414 38.49534225463867
-12.485611915588379 56.556156158447266 65.82643127441406
-13.421881675720215 -46.11559295654297 -79.42682647705078
-12.92326831817627 -94.30111694335938 84.1104507446289
-12.628914833068848 77.08297729492188 -63.915550231933594
-12.397358894348145 -87.91268157958984 92.5294189453125
-12.852743148803711 54.372100830078125 9.0609130859375
-12.973456382751465 61.97908401489258 67.9508285522461
-13.217488288879395 -96.47367095947266 90.51318359375
-12.746285438537598 -103.69998168945312 -42.11835479736328
-13.073609352111816 54.547119140625 67.04159545898438
-13.18188762664795 57.17681121826172 56.65020751953125
-12.614799499511719 68.47251892089844 -43.69231414794922
-11.333057403564453 -74.24110412597656 -12.26348876953125
-13.29078197479248 -5.787792205810547 -70.66883087158203
-12.401605606079102 63.54402160644531 62.53382873535156
-13.603729248046875 -25.666484832763672 -9.412849426269531
-13.412983894348145 -75.82548522949219 -82.1709976196289
-12.990983009338379 -13.126413345336914 -7.332489490509033
-12.50306224822998 61.202674865722656 73.23841094970703
-13.001961708068848 61.290164947509766 -17.99138641357422
-12.441356658935547 142.2733154296875 -75.3571548461914
-12.160016059875488 -92.81554412841797 -71.64434051513672
-10.757110595703125 47.97976303100586 75.15575408935547
-12.39946460723877 129.1730194091797 -76.24376678466797
-12.501898765563965 60.141170501708984 43.83784484863281
-12.1918363571167 57.9631462097168 -13.3564453125
-12.950925827026367 -31.733299255371094 -11.002571105957031
-12.253314971923828 -94.85905456542969 87.9679183959961
-12.411493301391602 -96.24161529541016 90.46439361572266
-11.440999031066895 44.79860305786133 1.4185482263565063
-12.768939971923828 -82.97062683105469 2.0383448600769043
-12.938087463378906 22.733034133911133 2.9084925651550293
-11.517081260681152 58.62140655517578 86.2087631225586
-12.042993545532227 49.99053955078125 69.12158966064453
-12.908082008361816 24.361528396606445 7.481063365936279
-11.6979341506958 65.94898986816406 30.739768981933594
-12.613773345947266 -5.885272979736328 -6.763512134552002
-11.819417953491211 72.59419250488281 -75.79322052001953
-12.451164245605469 -69.94286346435547 -15.20013427734375
-12.376664161682129 59.55620193481445 16.049591064453125
-12.318384170532227 57.77617263793945 63.33769226074219
-12.486228942871094 66.80113220214844 -38.56865692138672
-12.143721580505371 -101.2348861694336 -27.74310302734375
-11.777665138244629 129.69003295898438 -77.2303695678711
-11.415156364440918 57.27016067504883 29.469219207763672
-12.70201301574707 -36.719200134277344 -13.18243408203125
-12.34692668914795 62.17391586303711 47.11101150512695
-12.456625938415527 121.47139739990234 -58.40564727783203
-12.099369049072266 62.872703552246094 35.74703598022461
-12.337967872619629 56.47223663330078 13.368415832519531
-12.427681922912598 55.17549514770508 28.70108413696289
-12.050260543823242 -88.65457153320312 -6.541710376739502
-11.980708122253418 139.1221923828125 -75.28191375732422
-11.92149543762207 55.19746780395508 -9.646835327148438
-11.793249130249023 -90.90658569335938 91.09418487548828
-12.337724685668945 -42.874114990234375 -78.2404556274414
-12.011406898498535 59.529701232910156 76.72515869140625
-12.43651294708252 59.826263427734375 54.2429084777832
-12.055991172790527 61.984947204589844 54.26177978515625
-11.993640899658203 131.22518920898438 -74.56555938720703
-11.868961334228516 -80.5756607055664 -3.574455738067627
-12.117877006530762 75.97463989257812 -54.603050231933594
-12.389352798461914 121.52855682373047 -61.23064422607422
-12.109138488769531 47.055450439453125 -2.8694844245910645
-10.468567848205566 22.45590591430664 -6.4347310066223145
-11.289036750793457 -103.26023864746094 -36.955726623535156
-11.721739768981934 34.420021057128906 13.261581420898438
-11.197525978088379 -86.29527282714844 -6.9498066902160645
-12.27063274383545 122.8896255493164 -58.834815979003906
-11.569798469543457 60.15995788574219 75.76632690429688
-11.658332824707031 -40.4844970703125 -15.437919616699219
-11.915799140930176 51.68567657470703 23.659828186035156
-11.408976554870605 122.92805480957031 -56.681617736816406
-11.427349090576172 5.857980728149414 -71.83304595947266
-11.946673393249512 -103.08688354492188 -53.804359436035156
-11.75698471069336 117.57794952392578 -61.60015106201172
-12.185181617736816 -86.30738830566406 -78.68782806396484
-11.881811141967773 60.256343841552734 65.1143798828125
-11.397740364074707 79.35333251953125 -73.27288055419922
-12.168635368347168 106.78026580810547 -64.1150131225586
-11.81092357635498 123.86066436767578 -59.76183319091797
-11.975835800170898 -98.80097961425781 -22.08356475830078
-12.312666893005371 136.83665466308594 -75.65190887451172
-12.030353546142578 107.55535888671875 -56.90593719482422
-11.670735359191895 44.67567825317383 -0.7860797643661499
-11.626151084899902 124.45579528808594 -61.100120544433594
-10.413654327392578 24.20248794555664 -75.8630599975586
-12.0886869430542 119.4749526977539 -60.144752502441406
-10.576698303222656 130.23757934570312 -77.75728607177734
-9.517082214355469 -85.32574462890625 -79.92186737060547
-12.082063674926758 16.759742736816406 -72.8580551147461
-11.958870887756348 102.76331329345703 -63.363685607910156
-11.370065689086914 81.7566909790039 -61.05974578857422
-11.817283630371094 120.2513656616211 -63.630836486816406
-12.164976119995117 -46.729000091552734 -19.627044677734375
-11.850666046142578 63.328617095947266 58.10520935058594
-11.32095718383789 60.16234588623047 57.579254150390625
-11.368682861328125 69.48789978027344 -76.32108306884766
-11.405115127563477 57.94541931152344 58.890602111816406
-11.372966766357422 27.646621704101562 10.69464111328125
-11.80822467803955 118.91630554199219 -58.29015350341797
-11.403585433959961 54.82575225830078 68.41600799560547
-10.752533912658691 -82.79712677001953 -6.882782459259033
-11.722201347351074 60.44582748413086 34.81925582885742
-11.505536079406738 58.6346321105957 69.24011993408203
-11.767337799072266 13.733673095703125 -7.7573323249816895
-11.015776634216309 -104.37776184082031 -46.569175720214844
-11.680328369140625 66.53160858154297 24.647796630859375
-10.79545783996582 -88.48527526855469 -10.3726806640625
-11.093194007873535 74.83226776123047 -47.291770935058594
-10.688752174377441 138.51870727539062 -75.23033905029297
-9.537991523742676 -94.1442642211914 -70.77555084228516
-11.075088500976562 61.154300689697266 61.59441375732422
-11.093093872070312 134.61746215820312 -75.75865936279297
-12.259134292602539 54.98689270019531 26.913429260253906
-10.80303955078125 118.55636596679688 -66.00194549560547
-11.548517227172852 48.42351531982422 71.160400390625
-11.041646957397461 107.06073760986328 -49.26598358154297
-11.60415267944336 69.80009460449219 -42.067726135253906
-11.425086975097656 -100.73912048339844 -61.162986755371094
-11.541021347045898 -35.54057693481445 -76.89629364013672
-11.619582176208496 -0.8939914703369141 -71.37883758544922
-11.559845924377441 101.09523010253906 -56.04564666748047
-10.444099426269531 -102.13285827636719 -32.55018615722656
-11.669071197509766 -27.030929565429688 -74.7182388305664
-10.540019035339355 60.09257888793945 -16.53577423095703
-11.486841201782227 111.03142547607422 -68.14937591552734
-8.977745056152344 -54.28620910644531 -23.115768432617188
-11.680405616760254 56.410919189453125 60.80949783325195
-10.638986587524414 139.406005859375 -74.37772369384766
-10.230541229248047 58.83011245727539 74.26615142822266
-11.58784294128418 82.40980529785156 -68.61176300048828
-11.535585403442383 56.21076583862305 16.71551513671875
-11.69672679901123 48.1950798034668 70.37272644042969
-11.007675170898438 45.30547332763672 18.86901092529297
-11.285024642944336 119.81700897216797 -60.73810577392578
-10.804315567016602 -94.43159484863281 -16.834999084472656
-10.828906059265137 85.97492980957031 -75.23946380615234
-11.17021656036377 61.76078414916992 58.182472229003906
-11.11847972869873 38.42736053466797 14.862113952636719
-10.62143611907959 -64.6734390258789 -20.810302734375
-11.553834915161133 116.57461547851562 -58.49573516845703
-10.807862281799316 119.85366821289062 -69.52530670166016
-10.802980422973633 122.87140655517578 -58.85639190673828
-11.270221710205078 64.74745178222656 22.315956115722656
-11.24064826965332 48.3498420715332 76.63340759277344
-9.865196228027344 123.36735534667969 -57.83301544189453
-11.303181648254395 63.580509185791016 -24.468833923339844
-11.182967185974121 53.812870025634766 19.0718994140625
-11.026066780090332 -78.8719253540039 -8.2271728515625
-7.3602752685546875 -89.87358856201172 -77.90450286865234
-11.412318229675293 52.57620620727539 22.01441192626953
-11.076699256896973 122.10030364990234 -64.53496551513672
-10.932306289672852 101.271728515625 -50.486289978027344
-10.210672378540039 123.69441223144531 -56.63202667236328
-10.652268409729004 42.771785736083984 0.8163372278213501
-11.296518325805664 102.73027038574219 -69.9349136352539
-10.846809387207031 98.0871810913086 -64.30457305908203
-9.93117904663086 117.94505310058594 -53.238304138183594
-11.000093460083008 78.260986328125 -52.82543182373047
-10.530457496643066 25.408523559570312 7.838454723358154
-10.597733497619629 84.16744232177734 -75.45616912841797
-9.77260971069336 125.14450073242188 -73.1855239868164
-11.151681900024414 -20.55799102783203 -73.7628402709961
-10.536806106567383 114.58465576171875 -72.17499542236328
-10.16688346862793 119.95494079589844 -55.69239044189453
-10.225970268249512 124.95784759521484 -57.56835174560547
-11.055484771728516 67.30534362792969 -36.42107391357422
-10.339688301086426 119.17652130126953 -58.070533752441406
-9.274714469909668 29.931543350219727 -76.8457260131836
-10.531976699829102 48.85993576049805 9.983207702636719
-10.379602432250977 58.040626525878906 -76.8040542602539
-10.367733001708984 -104.16355895996094 -42.10973358154297
-8.165607452392578 -60.4295654296875 -24.855636596679688
-10.29016399383545 65.05174255371094 25.789161682128906
-10.770483016967773 65.80130004882812 -31.74688720703125
-11.12885570526123 57.75122833251953 26.998924255371094
-10.29733657836914 113.86915588378906 -49.62584686279297
-8.836066246032715 -63.87737274169922 -22.46991729736328
-10.193572044372559 57.70439147949219 75.92743682861328
-9.60806941986084 57.486419677734375 84.99536895751953
-11.243812561035156 23.084012985229492 3.358253002166748
-10.850996017456055 63.77634811401367 31.497329711914062
-10.612862586975098 97.72968292236328 -52.78752899169922
-10.98647403717041 4.984889030456543 -6.621429920196533
-10.360822677612305 91.49385833740234 -72.70795440673828
-10.739056587219238 61.16118621826172 31.33977508544922
-10.053054809570312 121.64948272705078 -69.5611343383789
-10.058037757873535 46.16303253173828 12.016212463378906
-10.674666404724121 58.68183135986328 -12.297080993652344
-10.186101913452148 52.16010665893555 70.19015502929688
-10.678080558776855 56.84836959838867 24.657684326171875
-10.449053764343262 106.31975555419922 -47.800453186035156
-10.425288200378418 124.39891052246094 -74.76656341552734
-9.827427864074707 51.42612075805664 78.31884002685547
-10.501189231872559 61.13843536376953 19.97614288330078
-10.230561256408691 58.28571701049805 21.85175323486328
-10.548398971557617 62.8436164855957 21.909217834472656
-10.60708236694336 -15.836992263793945 -73.24784088134766
-10.206286430358887 99.76902770996094 -69.66631317138672
-7.078464508056641 -93.06582641601562 -74.13333892822266
-10.295882225036621 102.70867919921875 -47.784767150878906
-10.380720138549805 59.99540328979492 23.346519470214844
-9.946032524108887 122.54927825927734 -65.45354461669922
-10.392502784729004 50.53207015991211 72.05630493164062
-9.933228492736816 -98.6716537475586 -24.508468627929688
-9.087172508239746 28.790390014648438 9.338401794433594
-10.014913558959961 119.04226684570312 -72.45563507080078
-9.492753028869629 126.01061248779297 -58.330589294433594
-10.364782333374023 83.85411071777344 -59.19683074951172
-9.956037521362305 50.78218460083008 71.41609191894531
-7.996542930603027 61.88642120361328 -21.815101623535156
-9.866249084472656 88.55484771728516 -65.07122039794922
-9.443669319152832 49.03516387939453 -77.6610336303711
-9.521039962768555 126.15575408935547 -74.3103256225586
-10.269681930541992 12.554798126220703 -73.25682830810547
-10.095439910888672 99.76963806152344 -78.57808685302734
-10.117803573608398 70.89430236816406 -40.65021514892578
-10.19678020477295 103.47858428955078 -77.91240692138672
-9.85350513458252 82.2698974609375 -79.68131256103516
-10.02115249633789 95.4266357421875 -55.835655212402344
-9.979506492614746 57.24629211425781 72.0404052734375
-9.666961669921875 35.37325668334961 11.188339233398438
-9.540129661560059 124.36038208007812 -77.24051666259766
-9.962985038757324 93.66227722167969 -78.4645767211914
-10.067492485046387 45.43682098388672 -1.3380283117294312
-8.80795955657959 133.79380798339844 -75.40267181396484
-10.152582168579102 52.93620681762695 -6.343933582305908
-10.096464157104492 114.70243835449219 -74.0453109741211
-10.181051254272461 92.57237243652344 -71.76758575439453
-9.985774040222168 104.90448760986328 -80.37670135498047
-9.162806510925293 -70.74647521972656 -17.4559326171875
-10.142847061157227 111.81877899169922 -73.50560760498047
-9.966498374938965 113.9654769897461 -77.55272674560547
-9.220230102539062 -96.02339935302734 -20.897369384765625
-9.275888442993164 131.05731201171875 -77.78527069091797
-9.982447624206543 62.53730010986328 26.90850067138672
-9.399537086486816 55.35072708129883 82.9085464477539
-9.766324996948242 40.95758056640625 4.291236400604248
-9.570311546325684 54.07352066040039 73.88296508789062
-8.564783096313477 55.50325012207031 83.61556243896484
-8.016153335571289 112.48936462402344 -40.590003967285156
-8.015104293823242 126.15138244628906 -74.95182037353516
-9.759410858154297 100.96305084228516 -81.53079986572266
-9.030584335327148 40.178916931152344 12.177749633789062
-9.048689842224121 -79.53931427001953 -10.876487731933594
-9.817469596862793 101.91951751708984 -76.11797332763672
-9.613838195800781 80.04216766357422 -52.349403381347656
-9.479573249816895 104.96525573730469 -73.6060562133789
-9.691267013549805 50.2986946105957 78.41068267822266
-7.8083577156066895 131.8973388671875 -77.0900650024414
-7.085133075714111 65.5931396484375 -84.47223663330078
-8.147871017456055 -11.293243408203125 -73.34955596923828
-9.440596580505371 39.57208251953125 1.0817867517471313
-9.576857566833496 122.9980697631836 -73.2428207397461
-9.585099220275879 75.27104187011719 -45.687110900878906
-9.605615615844727 106.91818237304688 -82.08951568603516
-9.297853469848633 118.48351287841797 -76.72528839111328
-9.517227172851562 97.61331176757812 -48.969444274902344
-8.851490020751953 122.6767578125 -69.15412139892578
-9.714311599731445 124.75261688232422 -63.638587951660156
-7.797105312347412 134.72898864746094 -74.07923126220703
-8.545564651489258 122.88074493408203 -55.26056671142578
-9.40161418914795 96.62422180175781 -71.2545394897461
-8.175091743469238 39.2822265625 -78.22797393798828
-9.45051097869873 41.75967788696289 -0.0732196569442749
-8.352618217468262 52.53877258300781 80.54995727539062
-9.205513000488281 91.93192291259766 -67.02986907958984
-9.423149108886719 120.7458724975586 -75.1894302368164
-9.430122375488281 56.556209564208984 -8.4808349609375
-9.160937309265137 92.2391357421875 -80.64722442626953
-9.300178527832031 95.84202575683594 -64.66886138916016
-7.684969902038574 50.17301559448242 -3.3980183601379395
-9.37572193145752 84.06890869140625 -56.859840393066406
-9.034056663513184 56.608821868896484 80.42053985595703
-8.028867721557617 -82.5863265991211 -11.312034606933594
-8.845939636230469 54.06679153442383 77.2585678100586
-9.004251480102539 37.307090759277344 6.102981090545654
-8.834741592407227 112.43281555175781 -82.0484390258789
-9.202493667602539 43.518798828125 -1.1498035192489624
-8.81118392944336 13.79250717163086 -5.553215503692627
-8.8705472946167 104.89567565917969 -44.742149353027344
-8.294949531555176 99.44921112060547 -71.5674057006836
-8.960509300231934 50.30714416503906 77.69263458251953
-9.245061874389648 24.678688049316406 4.747863292694092
-8.369450569152832 126.11848449707031 -62.11058807373047
-8.280534744262695 36.006591796875 7.014258861541748
-8.538105010986328 135.89724731445312 -75.22509002685547
-8.391066551208496 -75.59254455566406 -15.414772033691406
-8.548845291137695 -85.19125366210938 -11.251380920410156
-7.602888584136963 121.3347396850586 -55.90216827392578
-8.087061882019043 125.6676025390625 -78.1670150756836
-7.399903774261475 71.82025146484375 -84.47811126708984
-7.86561918258667 116.05278778076172 -45.56616973876953
-8.085996627807617 108.42931365966797 -41.453834533691406
-8.902442932128906 121.24996948242188 -55.20716094970703
-9.075311660766602 79.53520965576172 -82.11383819580078
-8.986244201660156 94.56227111816406 -59.036293029785156
-8.821562767028809 100.619873046875 -72.36124420166016
-9.030442237854004 -97.28739166259766 -66.85582733154297
-8.414718627929688 66.97560119628906 -32.345359802246094
-7.635671138763428 117.39749145507812 -81.69498443603516
-8.741589546203613 124.75083923339844 -73.23119354248047
-8.95022201538086 20.541048049926758 -6.074036121368408
-8.57550048828125 90.71737670898438 -81.2132339477539
-8.755081176757812 64.10798645019531 -26.45812225341797
-7.407405376434326 90.64974212646484 -84.98628997802734
-8.72512435913086 105.88764190673828 -84.44896697998047
-8.732731819152832 94.694091796875 -54.96063995361328
-8.739325523376465 35.339839935302734 9.237098693847656
-8.744181632995605 -1.0604915618896484 -72.6258316040039
-8.739542007446289 16.888317108154297 -76.13983917236328
-8.639532089233398 23.787748336791992 0.4572674036026001
-6.432589530944824 -5.999979019165039 -73.10285186767578
-8.172369956970215 5.927757263183594 -73.32530975341797
-8.197798728942871 98.04598999023438 -69.28173065185547
-8.5460844039917 98.26766204833984 -48.13245391845703
-7.884816646575928 95.43517303466797 -51.836265563964844
-8.426078796386719 100.7130355834961 -73.0238265991211
-7.772896766662598 125.30029296875 -68.70667266845703
-8.525039672851562 -25.862037658691406 -7.781982898712158
-8.245265007019043 -14.27971076965332 -5.417503833770752
-8.221183776855469 70.86347961425781 -39.110008239746094
-7.896620750427246 31.41118621826172 8.103179931640625
-7.383525371551514 88.78933715820312 -60.43390655517578
-7.533472061157227 94.83055877685547 -63.581932067871094
-8.08800220489502 98.50057983398438 -84.21651458740234
-7.927748680114746 125.53429412841797 -71.45030975341797
-8.075193405151367 -32.21017837524414 -9.839218139648438
-8.005114555358887 43.53245544433594 -0.5424884557723999
-7.725643157958984 128.29092407226562 -73.5548324584961
-7.233968257904053 36.45691680908203 0.35382044315338135
-8.224311828613281 21.40521812438965 -77.64183807373047
-7.875032424926758 -4.94444465637207 -4.416038990020752
-8.19293212890625 -57.581390380859375 -85.0268325805664
-6.936800003051758 127.22992706298828 -74.82686614990234
-7.835998058319092 102.30889892578125 -45.445228576660156
-7.694976329803467 76.09785461425781 -45.92473602294922
-8.118552207946777 -47.31869125366211 -82.1728286743164
-7.378746032714844 104.24809265136719 -86.69564056396484
-8.095612525939941 -51.85478973388672 -83.75882720947266
-6.841021537780762 47.63311004638672 -80.93225860595703
-7.15736198425293 122.56327819824219 -52.34449005126953
-6.22162389755249 -36.481754302978516 -11.970108032226562
-7.431293964385986 33.422393798828125 6.776900768280029
-7.393978118896484 25.791532516479492 2.631415843963623
-7.972082138061523 -64.97539520263672 -84.7818374633789
-5.781014919281006 -48.03973388671875 -20.233055114746094
-8.112199783325195 81.22766876220703 -52.71442413330078
-8.096075057983398 -42.917808532714844 -80.41576385498047
-7.41147518157959 -92.160400390625 -17.84648895263672
-7.0623555183410645 126.72251892089844 -78.03052520751953
-6.297261714935303 -103.88541412353516 -41.96208953857422
-6.4543070793151855 -104.39701080322266 -46.78472137451172
-7.469801902770996 -27.39175033569336 -77.17430877685547
-6.462201118469238 -103.06108093261719 -37.850059509277344
-7.714832305908203 -71.37348937988281 -83.86682891845703
-7.515700340270996 41.10944366455078 -1.2594302892684937
-7.429717063903809 94.1894760131836 -56.584861755371094
-7.1392998695373535 133.4124298095703 -75.0465316772461
-7.1858086585998535 131.44976806640625 -73.60762786865234
-7.175112247467041 -59.01646423339844 -24.499839782714844
-6.115121841430664 60.73186492919922 -14.105865478515625
-6.832399845123291 87.16688537597656 -86.42957305908203
-7.02133846282959 126.7812728881836 -60.390541076660156
-6.500315189361572 -103.58926391601562 -53.511741638183594
-7.025164604187012 124.09031677246094 -54.144996643066406
-7.572282314300537 23.816059112548828 -4.6344380378723145
-6.876815319061279 25.231170654296875 -78.99645233154297
-7.365551471710205 35.32695007324219 4.798736095428467
-6.891103744506836 99.04544067382812 -67.64278411865234
-8.023772239685059 -76.76819610595703 -82.72339630126953
-7.439631938934326 -78.25489044189453 -14.340835571289062
-6.685866832733154 109.85326385498047 -34.164390563964844
-4.781721591949463 -101.24079132080078 -34.03157043457031
-7.313090801239014 122.88135528564453 -79.57071685791016
-7.05163049697876 105.22233581542969 -39.45911407470703
-6.981280326843262 108.24214172363281 -87.07013702392578
-7.147066116333008 92.27232360839844 -63.663047790527344
-7.2013163566589355 79.22015380859375 -48.408409118652344
-6.605151176452637 57.45358657836914 -7.596573352813721
-5.889891147613525 102.90013122558594 -39.02483367919922
-7.204371929168701 105.44081115722656 -58.73583221435547
-7.189552307128906 106.11980438232422 -52.775840759277344
-6.451443195343018 27.715133666992188 1.8550869226455688
-7.119472026824951 -101.18839263916016 -61.525840759277344
-7.143222808837891 -18.328269958496094 -75.1239242553711
-5.829178333282471 127.53436279296875 -69.17891693115234
-7.069851875305176 108.08821105957031 -58.374839782714844
-5.6925883293151855 102.638671875 -87.90642547607422
-6.864488124847412 4.046704292297363 -4.489189624786377
-6.604144096374512 114.28875732421875 -36.069053649902344
-7.020711898803711 -88.90238952636719 -15.387832641601562
-5.637197971343994 47.437217712402344 -1.3970950841903687
-5.164768695831299 125.76038360595703 -55.84851837158203
-6.927492141723633 104.81201171875 -46.895835876464844
-5.472070693969727 128.06004333496094 -72.1750259399414
-6.908842086791992 104.2164077758789 -52.45783233642578
-5.408778190612793 32.509246826171875 -81.0044937133789
-6.499447822570801 113.30345153808594 -86.09444427490234
-5.827917098999023 67.527587890625 -31.91217041015625
-4.716569423675537 62.76814270019531 -21.29224395751953
-6.428135871887207 32.93425750732422 0.5738979578018188
-5.585954189300537 119.97649383544922 -44.057579040527344
-6.342158317565918 106.54419708251953 -33.87278747558594
-6.837723731994629 96.85334014892578 -49.169532775878906
-5.3206467628479 23.201332092285156 -4.326111316680908
-4.71109676361084 69.4835205078125 -37.157508850097656
-6.238657474517822 40.410728454589844 -1.2827380895614624
-4.21034574508667 98.71209716796875 -45.72864532470703
-6.5553154945373535 105.12203216552734 -32.92554473876953
-2.8858792781829834 94.64968872070312 -62.87462615966797
-6.595191955566406 108.60050964355469 -52.585838317871094
-6.053339004516602 118.60163116455078 -84.1131362915039
-6.118412017822266 98.0577392578125 -67.85254669189453
-6.295451641082764 108.2319107055664 -28.82220458984375
-6.195190906524658 -96.19518280029297 -69.82598114013672
-6.038696765899658 128.8824462890625 -73.82848358154297
-6.562663555145264 113.57058715820312 -25.70733642578125
-6.3578104972839355 79.28489685058594 -86.97301483154297
-5.965476036071777 89.9200668334961 -58.40081024169922
-5.998886585235596 124.9296646118164 -79.15106964111328
-5.573955059051514 99.00363159179688 -47.122337341308594
-4.67249059677124 59.74751281738281 -10.011344909667969
-5.815071105957031 105.85957336425781 -23.84601593017578
-5.7966694831848145 104.14275360107422 -34.83869934082031
-5.153317928314209 104.52210235595703 -25.474899291992188
-4.4748406410217285 94.34555053710938 -62.49712371826172
-5.501076698303223 103.82121276855469 -42.847129821777344
-5.6980881690979 26.961193084716797 -4.0975728034973145
-5.839553356170654 73.59921264648438 -87.08582305908203
-5.739310264587402 104.25917053222656 -26.437118530273438
-5.903517246246338 36.719482421875 -2.664543628692627
-5.61688232421875 97.86026763916016 -65.27909088134766
-6.8596391677856445 106.48726654052734 -45.686500549316406
-5.7401018142700195 127.78107452392578 -76.4831771850586
-5.640251636505127 12.601155281066895 -4.096336841583252
-4.068574905395508 38.302303314208984 -82.36542510986328
-5.428657531738281 102.56884765625 -46.393531799316406
-5.970012187957764 103.52851104736328 -58.554832458496094
-5.444345951080322 107.92180633544922 -88.53343963623047
-6.093043804168701 112.2012710571289 -24.149795532226562
-5.647462368011475 116.0480728149414 -34.905921936035156
-5.649446964263916 113.53197479248047 -28.354202270507812
-4.5201287269592285 50.49370193481445 -1.871986746788025
-5.028964519500732 101.83364868164062 -51.95716094970703
-5.318294048309326 110.0421142578125 -24.51757049560547
-4.67199182510376 105.59050750732422 -90.71491241455078
-4.779501914978027 87.11467742919922 -89.52336883544922
-5.789178848266602 -66.72299194335938 -19.39856719970703
-2.528620958328247 43.014652252197266 -83.97876739501953
-5.8167548179626465 -85.11479949951172 -14.623779296875
-5.328477382659912 116.36671447753906 -26.23999786376953
-5.386082649230957 31.886505126953125 -1.9124377965927124
-5.245109558105469 113.78238677978516 -26.762939453125
-5.7188520431518555 14.597687721252441 -77.20983123779297
-5.270162105560303 121.509521484375 -82.8999252319336
-5.670572280883789 19.158958435058594 -78.81183624267578
-5.906219959259033 105.87609100341797 -37.700401306152344
-4.307085990905762 103.81842803955078 -21.798385620117188
-4.973817825317383 102.56143951416016 -31.479812622070312
-5.589599132537842 -62.18815612792969 -20.13513946533203
-5.046571254730225 116.10599517822266 -28.748023986816406
-2.9716010093688965 127.86003875732422 -60.639549255371094
-5.5814619064331055 -65.64157104492188 -22.033119201660156
-4.863414287567139 117.18965911865234 -86.49201202392578
-5.089175224304199 104.79464721679688 -26.9078369140625
-5.961386680603027 105.31571197509766 -32.24054718017578
-4.680683612823486 109.56309509277344 -42.181846618652344
-5.100375175476074 70.27409362792969 -87.4289779663086
-5.192392349243164 -93.07491302490234 -76.25074005126953
-5.1894307136535645 80.98013305664062 -46.68462371826172
-3.7906670570373535 100.04212951660156 -27.42383575439453
-5.190847396850586 97.63746643066406 -89.37676239013672
-4.4610443115234375 118.97254180908203 -38.25621795654297
-5.360241889953613 108.87760925292969 -45.708839416503906
-4.977223873138428 106.29486846923828 -30.003395080566406
-5.029936790466309 103.48005676269531 -34.77507019042969
-3.9366092681884766 64.19274139404297 -25.627273559570312
-5.305791854858398 30.216808319091797 -4.272331714630127
-2.0826377868652344 -88.24818420410156 -80.34395599365234
-4.235057830810547 49.815818786621094 -83.70475006103516
-5.254092216491699 9.927177429199219 -75.34683990478516
-5.177224159240723 -69.09962463378906 -22.07994842529297
-5.084328651428223 -64.65707397460938 -23.810989379882812
-4.300045967102051 104.18547058105469 -23.144668579101562
-4.287372589111328 102.98297119140625 -23.262344360351562
-4.525227069854736 101.86739349365234 -38.831382751464844
-5.17073917388916 114.29230499267578 -24.853591918945312
-4.462100982666016 107.84356689453125 -35.63623046875
-4.441908359527588 96.31925964355469 -51.56346893310547
-4.460327625274658 101.42750549316406 -56.739036560058594
-5.0604567527771 4.697112083435059 -74.37700653076172
-4.6816487312316895 96.68434143066406 -61.592063903808594
-5.032034397125244 114.48151397705078 -26.997573852539062
-4.96270227432251 -1.5339927673339844 -73.62383270263672
-4.672670364379883 112.02023315429688 -21.913177490234375
-4.9422221183776855 -65.22499084472656 -17.28083038330078
-4.712847709655762 103.1678237915039 -28.68016815185547
-4.240916728973389 112.5451889038086 -27.919654846191406
-4.761299133300781 128.16842651367188 -65.6206283569336
-4.440280437469482 126.32843780517578 -77.85161590576172
-4.627922534942627 110.17276763916016 -21.44537353515625
-4.853271961212158 110.50241088867188 -58.461830139160156
-4.6549530029296875 113.07804870605469 -30.09674072265625
-4.873064994812012 -95.65985870361328 -72.42292022705078
-4.492921829223633 117.00113677978516 -25.2626953125
-4.396739482879639 -70.83280944824219 -19.81298065185547
-4.799582004547119 -62.34679412841797 -17.719833374023438
-4.2607316970825195 102.39606475830078 -33.56883239746094
-4.214674472808838 90.19681549072266 -55.329505920410156
-3.9605319499969482 127.9262924194336 -74.63753509521484
-4.5220746994018555 33.201995849609375 -4.323990345001221
-4.016200065612793 97.02348327636719 -65.60237884521484
-4.428933143615723 27.30988311767578 -4.3393635749816895
-3.1279942989349365 71.47447204589844 -38.429969787597656
-4.608652114868164 -101.26538848876953 -61.51782989501953
-4.5904622077941895 57.09170913696289 -7.239136219024658
-4.5857319831848145 -68.72119140625 -17.904830932617188
-4.138330459594727 105.84207916259766 -22.83843994140625
-3.666684627532959 118.17635345458984 -29.910751342773438
-4.080704212188721 108.2205581665039 -19.787994384765625
-2.6783297061920166 -81.18816375732422 -18.21154022216797
-4.312138080596924 -61.905548095703125 -24.342735290527344
-3.1127827167510986 -73.94645690917969 -21.244468688964844
-4.239859104156494 53.714752197265625 -5.1370930671691895
-3.5486888885498047 22.009483337402344 -3.4869160652160645
-3.0951645374298096 44.61537551879883 -1.7474597692489624
-4.068142414093018 113.68611907958984 -22.2490234375
-3.224263906478882 -95.660400390625 -25.079261779785156
-3.617799997329712 96.0343017578125 -91.29180145263672
-4.207534313201904 102.63591766357422 -25.81652069091797
-3.8350577354431152 112.75753021240234 -25.015151977539062
-2.845721483230591 126.57980346679688 -56.372169494628906
-2.721038579940796 -92.48027038574219 -22.088119506835938
-3.5973012447357178 107.55330657958984 -25.321975708007812
-4.125743389129639 101.5014877319336 -65.64498138427734
-2.9117512702941895 -76.42024230957031 -20.553001403808594
-2.5391111373901367 -78.1722183227539 -19.720687866210938
-2.5888283252716064 104.03451538085938 -21.812789916992188
-4.089447498321533 -59.55431365966797 -20.89373779296875
-0.10396160930395126 -43.61075973510742 -17.011962890625
-4.185172080993652 104.6195068359375 -62.30583953857422
-3.595494508743286 103.4546890258789 -21.964332580566406
-3.964118242263794 100.02970123291016 -64.92150115966797
-4.156862258911133 111.49640655517578 -53.408836364746094
-4.129752159118652 -98.2533950805664 -67.5078353881836
-4.158314228057861 -20.816410064697266 -5.840958118438721
-3.976400136947632 -12.692155838012695 -4.001823902130127
-3.808858871459961 102.95096588134766 -65.31334686279297
-3.2229089736938477 102.17752838134766 -42.26325225830078
-2.885105848312378 52.754905700683594 -3.5012593269348145
-2.685274124145508 129.10879516601562 -71.11864471435547
-2.9277946949005127 112.11416625976562 -20.70429229736328
-3.9609527587890625 -27.587169647216797 -7.536980152130127
-3.602729558944702 69.36808776855469 -88.32193756103516
-3.709257125854492 -5.75996208190918 -3.140892505645752
-3.92273211479187 99.57270812988281 -62.71582794189453
-3.3023438453674316 113.64057922363281 -89.91268157958984
-3.7086753845214844 -43.922332763671875 -82.14156341552734
-3.7742679119110107 -33.81179428100586 -79.55965423583984
-3.164273500442505 109.61285400390625 -31.410743713378906
-3.5404796600341797 -32.09458923339844 -9.155860900878906
-3.786912202835083 -48.104793548583984 -83.69983673095703
-2.779524087905884 106.5901107788086 -22.896881103515625
-1.6571236848831177 100.7457046508789 -27.939849853515625
-3.260986089706421 80.7662582397461 -89.9583511352539
-2.2222695350646973 60.63941192626953 -13.561958312988281
-4.015318393707275 81.1059341430664 -45.80278778076172
-3.8540236949920654 94.65904235839844 -58.903343200683594
-3.5210275650024414 105.5425796508789 -91.71485137939453
-3.609520673751831 101.29216766357422 -47.839927673339844
-3.3077504634857178 66.13345336914062 -29.433731079101562
-3.374785900115967 -96.6936264038086 -74.75218963623047
-0.5142407417297363 -58.57427978515625 -86.17166900634766
-3.588672161102295 -52.83238983154297 -85.0548324584961
-2.4665873050689697 40.51429748535156 -3.458366870880127
-3.361886501312256 -102.84809875488281 -40.697547912597656
-3.6508092880249023 -65.78892517089844 -85.21109771728516
-3.0922300815582275 111.05316162109375 -44.49828338623047
-3.4652822017669678 -65.26428985595703 -15.870834350585938
-2.9840362071990967 96.94233703613281 -63.80426788330078
-2.930140733718872 -60.195228576660156 -18.20642852783203
-3.116960048675537 -16.292163848876953 -75.60665130615234
-3.257002592086792 7.813107013702393 -3.651817798614502
-3.3889620304107666 -62.51869201660156 -16.229835510253906
-3.312041759490967 -59.05103302001953 -24.02228546142578
-2.550663471221924 100.94129180908203 -23.394142150878906
-3.364612340927124 100.7356185913086 -56.90477752685547
-3.2297041416168213 61.28742599487305 -16.449546813964844
-2.8522918224334717 -95.60136413574219 -76.92281341552734
-2.1534528732299805 122.55562591552734 -43.515464782714844
-2.705939531326294 96.31544494628906 -60.73035430908203
-2.151622772216797 -78.42339324951172 -82.87335968017578
-2.3735134601593018 -97.65690612792969 -72.42955780029297
-3.1973021030426025 -69.28229522705078 -16.38483428955078
-3.071087121963501 -52.80951690673828 -22.100059509277344
-2.1546390056610107 47.959503173828125 -1.4132007360458374
-2.7382218837738037 -103.41194152832031 -47.422325134277344
-3.086045980453491 102.31172943115234 -92.77722930908203
-2.5081593990325928 102.46809387207031 -23.262420654296875
-2.2695016860961914 103.28191375732422 -21.143768310546875
-2.493703603744507 98.97431945800781 -63.415382385253906
-1.8705952167510986 62.871543884277344 -23.437095642089844
-2.2145519256591797 -96.8754653930664 -71.08951568603516
-2.7168846130371094 -58.535888671875 -22.197235107421875
-2.7559361457824707 109.13917541503906 -92.22895050048828
-1.7709577083587646 23.173507690429688 -3.2795186042785645
-2.443593740463257 93.81901550292969 -57.14568328857422
-2.222384214401245 103.59331512451172 -20.85022735595703
-2.231926679611206 108.34394073486328 -18.97309112548828
-2.437873601913452 120.13346862792969 -86.18407440185547
-1.9212771654129028 101.64959716796875 -33.00012969970703
-1.061523199081421 127.951171875 -76.23259735107422
-2.8827521800994873 -88.10539245605469 -19.2568359375
-2.8813421726226807 105.63311004638672 -63.047828674316406
-2.435572862625122 -49.09734344482422 -20.421730041503906
-2.572147846221924 123.8625717163086 -82.15499114990234
-2.082310199737549 -102.66680908203125 -53.91649627685547
-1.9662811756134033 94.31719970703125 -59.93578338623047
-1.4210631847381592 89.51143646240234 -52.267005920410156
0.297782301902771 -12.859119415283203 -75.06171417236328
-2.723031997680664 -71.41129302978516 -18.132835388183594
-2.416487455368042 98.73965454101562 -42.21739959716797
-1.0231735706329346 103.93235778808594 -21.226898193359375
-3.0340583324432373 97.8209228515625 -47.73853302001953
-2.638166904449463 23.554826736450195 -81.49988555908203
-2.0953214168548584 115.94269561767578 -22.663406372070312
-2.3731648921966553 98.9824447631836 -28.089675903320312
-1.9926197528839111 -102.91001892089844 -71.5683364868164
-2.0948047637939453 99.19349670410156 -26.14794921875
-2.7175543308258057 14.129316329956055 -78.26432037353516
-1.960564136505127 -103.90567779541016 -72.72322845458984
-2.0497937202453613 -100.13482666015625 -35.569374084472656
-2.5200328826904297 64.94389343261719 -89.25249481201172
-2.4746854305267334 49.376922607421875 -85.74761199951172
-1.2677186727523804 101.3785629272461 -36.17377471923828
-2.3782801628112793 30.478546142578125 -83.05280303955078
-2.1890268325805664 -54.476036071777344 -19.040000915527344
-2.3567070960998535 8.46759033203125 -75.83136749267578
-2.2956273555755615 78.15574645996094 -91.2539291381836
-1.4829959869384766 -98.72029113769531 -76.44794464111328
-1.5860105752944946 108.54486083984375 -23.427474975585938
-1.5504876375198364 33.10169982910156 -5.934433460235596
-2.316312074661255 -101.37039184570312 -61.250831604003906
-2.588609218597412 101.5299072265625 -31.917449951171875
-2.1666009426116943 36.87521743774414 -83.6317367553711
-0.22400927543640137 -7.700244903564453 -74.08332061767578
-1.2738689184188843 94.87309265136719 -61.798179626464844
-1.059842824935913 100.4881591796875 -52.06664276123047
-1.6230405569076538 -73.79032135009766 -21.95105743408203
-2.0670716762542725 54.740352630615234 -6.333214282989502
-1.5295010805130005 18.178674697875977 -3.0705342292785645
-0.16566729545593262 -2.0285778045654297 -74.30352020263672
-2.197157859802246 103.86978149414062 -93.49311065673828
0.10069787502288818 2.3852434158325195 -74.90177154541016
0.28758957982063293 106.12960052490234 -21.357872009277344
-2.084879159927368 118.0312271118164 -25.91527557373047
-2.0575151443481445 115.60520935058594 -89.80574798583984
-1.8571336269378662 90.3559341430664 -92.6697006225586
-1.1870698928833008 123.82365417480469 -47.591957092285156
-1.9058520793914795 59.359107971191406 -10.637832641601562
-1.6726938486099243 74.14016723632812 -39.619056701660156
-0.3825486898422241 -98.99159240722656 -66.26251983642578
-1.8813021183013916 57.300907135009766 -8.285835266113281
-1.1142873764038086 -55.69623565673828 -18.417312622070312
-1.7396641969680786 111.56268310546875 -36.598548889160156
-0.5784271955490112 81.70576477050781 -45.027076721191406
-1.7098370790481567 -102.18869018554688 -42.07476043701172
-1.2152312994003296 -50.695579528808594 -17.39537811279297
-1.6463444232940674 109.8475112915039 -25.018814086914062
-1.093621850013733 94.99345397949219 -58.985939025878906
-0.9870800971984863 -102.56002807617188 -70.45101165771484
-1.0094637870788574 -97.62799835205078 -77.23638153076172
0.10058927536010742 129.02342224121094 -74.03067779541016
-1.3273341655731201 93.69921112060547 -61.461387634277344
-0.2247724086046219 87.04541778564453 -49.91864776611328
-0.13665354251861572 -74.25056457519531 -22.469711303710938
0.048799995332956314 -97.01034545898438 -69.6144790649414
-0.07512473315000534 -62.4039306640625 -16.02820587158203
-1.0557323694229126 -59.38972473144531 -18.670501708984375
0.004231033846735954 -64.96656036376953 -15.833320617675781
-1.4640765190124512 101.76227569580078 -42.84471893310547
-1.1541720628738403 -69.30429077148438 -16.33283233642578
-0.6140257716178894 -141.84915161132812 -53.45563507080078
0.48897841572761536 64.9798583984375 -28.81645965576172
-0.664164662361145 94.20940399169922 -55.365028381347656
-0.35910046100616455 -71.23816680908203 -17.89234161376953
0.007981333881616592 96.23138427734375 -55.32939910888672
0.025999944657087326 37.930458068847656 -5.749512195587158
-0.19252701103687286 100.30616760253906 -27.70526885986328
0.08298128098249435 40.512718200683594 -4.989441394805908
-0.5420495867729187 -141.60293579101562 -51.79071807861328
0.024714304134249687 -100.57301330566406 -61.278846740722656
-0.17991682887077332 101.06849670410156 -24.615982055664062
0.006841094233095646 -99.90576934814453 -39.16149139404297
0.0014175837859511375 -96.65472412109375 -31.69567108154297
-0.028178226202726364 -76.98155975341797 -22.022689819335938
-0.2725769877433777 -99.61734771728516 -71.01717376708984
0.017750324681401253 -92.06864166259766 -25.07562255859375
-0.025087445974349976 -101.31819915771484 -44.08324432373047
0.006336214020848274 -87.44318389892578 -21.986732482910156
0.030681483447551727 55.3106575012207 -8.151756286621094
0.006205554120242596 -101.59564971923828 -48.80573272705078
2.4506585597991943 104.1649169921875 -21.610496520996094
2.440584182739258 125.00253295898438 -51.696861267089844
-0.2294522523880005 -118.3132095336914 -66.47539520263672
0.2803454101085663 -79.21744537353516 -21.051002502441406
2.280888080596924 101.60990905761719 -22.72785186767578
0.02124834433197975 -81.66224670410156 -21.241470336914062
0.03984278440475464 45.12831115722656 -2.742218494415283
0.2570217251777649 102.57837677001953 -22.512474060058594
0.0387238934636116 -101.41476440429688 -54.942344665527344
-0.028920356184244156 48.20783996582031 -1.9005130529403687
-0.02496366575360298 -50.455169677734375 -18.691299438476562
2.1829421520233154 126.99947357177734 -57.17473602294922
