NOTE openvision4
VERSION .7
FIELDS x y z
TYPE F F F
COUNT 1 1 1
WIDTH 829
HEIGHT 1
VIEWPOINT 0 0 0 1 0 0 0
POINTS 829
DATA ascii
-3.7510972023010254 22.559932708740234 -0.3059970438480377
-3.4870681762695312 -3.602212905883789 -11.926497459411621
-3.6194450855255127 -2.8530666828155518 -12.801488876342773
-3.6348490715026855 -3.724524736404419 -10.053114891052246
-3.672152042388916 22.455625534057617 2.9849371910095215
-3.7827377319335938 6.566699028015137 6.920703887939453
-3.660679578781128 5.004418849945068 -20.68450355529785
-3.7833473682403564 22.0422306060791 2.849710464477539
-3.69581937789917 19.71680450439453 4.981757164001465
-3.6641058921813965 -1.7533330917358398 -11.711213111877441
-3.8925814628601074 -9.777735710144043 -8.351573944091797
-3.7664875984191895 20.954288482666016 3.763490676879883
-3.750654935836792 2.901951551437378 16.6925048828125
-3.6511707305908203 23.53904914855957 2.0633249282836914
-3.6151013374328613 23.961828231811523 0.7557632327079773
-3.956071376800537 6.477606296539307 -20.12997817993164
-3.6212291717529297 24.674646377563477 -1.4784972667694092
-3.6425769329071045 1.6766313314437866 -0.10865135490894318
-3.412338972091675 24.365665435791016 -2.0693604946136475
-3.762580394744873 -6.547534942626953 4.906399726867676
-3.6237735748291016 -11.666135787963867 -1.8249289989471436
-3.8409295082092285 21.215774536132812 1.6581661701202393
-3.6512393951416016 20.017765045166016 2.7712290287017822
-3.7200894355773926 -1.4576305150985718 -15.856973648071289
-3.716845750808716 5.496630668640137 16.089284896850586
-3.714803695678711 -1.8623565435409546 -15.31775188446045
-3.6322154998779297 24.559938430786133 0.679090142250061
-3.6997413635253906 21.772584915161133 1.0577906370162964
-3.7078685760498047 -2.3823184967041016 -15.429361343383789
-3.7178714275360107 -2.0893330574035645 -14.50244140625
-3.6606357097625732 15.578089714050293 8.389934539794922
-3.699049472808838 -2.5845890045166016 -14.682119369506836
-3.7106235027313232 4.3998122215271 16.631393432617188
-3.637904644012451 23.474056243896484 1.6933733224868774
-3.69111704826355 -1.295196294784546 -15.621615409851074
-3.6213252544403076 21.332061767578125 3.99104380607605
-3.5303664207458496 -4.755149841308594 -9.166873931884766
-2.981177806854248 6.465696811676025 -20.758625030517578
-3.679415464401245 16.550006866455078 8.217843055725098
-3.4129860401153564 6.7102508544921875 -21.955154418945312
-3.6014370918273926 18.551286697387695 6.091809272766113
-3.66807222366333 -3.6744847297668457 11.971748352050781
-3.616473436355591 -1.9286037683486938 -16.074533462524414
-3.6193299293518066 -11.60180950164795 -6.5993971824646
-3.4408621788024902 -3.712596893310547 -10.470932960510254
-3.6663265228271484 15.505825996398926 5.677532196044922
-3.508439302444458 -3.2407448291778564 -4.916031360626221
-3.5563342571258545 -1.1002336740493774 -10.420324325561523
-3.5395264625549316 3.7618167400360107 4.106619834899902
-3.535676956176758 -3.7440266609191895 -11.09076976776123
-3.625525951385498 -0.8185855746269226 -8.576476097106934
-3.561769485473633 19.552623748779297 5.23150634765625
-3.6426072120666504 -1.6185541152954102 -14.306246757507324
-3.579413652420044 -2.405339479446411 -13.435232162475586
-3.529855728149414 15.992345809936523 5.369013786315918
-3.2226738929748535 24.055294036865234 -2.927664279937744
-3.4953999519348145 -3.014932155609131 -4.654012680053711
-2.955287218093872 24.222017288208008 -2.847111940383911
-3.5909876823425293 -0.9687376022338867 -7.916330814361572
-3.600562334060669 -8.271571159362793 2.790374755859375
-3.374915599822998 4.254082679748535 -19.501684188842773
-3.559518814086914 -1.519304871559143 -7.1026434898376465
-3.4938302040100098 5.2357072830200195 -20.830713272094727
-3.612290143966675 -2.494206428527832 -3.9542336463928223
-3.2255465984344482 6.764601230621338 -21.8922119140625
-3.6056571006774902 2.8857412338256836 -18.7359561920166
-3.598642349243164 -8.80024528503418 -9.296710014343262
-3.5637295246124268 0.8985133171081543 -1.154181718826294
-3.5789356231689453 -1.5329406261444092 -14.912915229797363
-3.586421489715576 3.076455593109131 -19.1466064453125
-3.499133586883545 8.462823867797852 6.986559867858887
-3.541487455368042 2.4475831985473633 -19.02811050415039
-3.54217267036438 11.772603988647461 9.890378952026367
-3.3872036933898926 4.298169136047363 -20.449050903320312
-3.2261950969696045 25.161165237426758 -0.18810996413230896
-3.536649227142334 -2.5929112434387207 -15.673971176147461
-3.5762908458709717 -3.3437836170196533 13.196365356445312
-3.572810649871826 -1.4073784351348877 -3.2730133533477783
-3.5485846996307373 -1.708017110824585 -13.533914566040039
-3.4918594360351562 6.338744640350342 -19.107898712158203
-3.45074200630188 4.227349281311035 -20.0903263092041
-3.398724317550659 5.0547637939453125 -18.950458526611328
-3.465238094329834 23.7228946685791 2.0821449756622314
-3.432699680328369 15.183941841125488 8.551193237304688
-3.5613811016082764 -2.8965706825256348 -14.829333305358887
-3.401948928833008 23.676921844482422 1.8100950717926025
-3.4787650108337402 10.898003578186035 10.628885269165039
-3.4187633991241455 -1.3107305765151978 -13.629422187805176
-3.269965648651123 -3.4237263202667236 -13.560689926147461
-3.542590379714966 -0.27961990237236023 -2.418494701385498
-3.053307294845581 -10.913400650024414 0.602098822593689
-3.465397596359253 -2.955353260040283 -13.97510051727295
-3.450460433959961 20.331764221191406 2.4360854625701904
-3.462580919265747 -9.527132987976074 1.340561032295227
-3.510570526123047 22.531539916992188 -0.3723165988922119
-3.441366195678711 7.791081428527832 14.759908676147461
-3.4104247093200684 20.933130264282227 1.6341915130615234
-3.382692337036133 9.960409164428711 6.333007335662842
-3.490440845489502 10.817422866821289 6.134134292602539
-3.426084518432617 2.687462329864502 -19.58914566040039
-3.3550219535827637 9.360227584838867 6.5518364906311035
-3.3864567279815674 -12.724599838256836 -5.58316707611084
-3.3911919593811035 -6.953421592712402 -9.620950698852539
-3.477591037750244 -0.9264497756958008 -16.282684326171875
-3.370203733444214 3.4135119915008545 -18.310794830322266
-3.4732608795166016 -0.7626736760139465 -15.917287826538086
-3.442328929901123 21.561756134033203 3.7697513103485107
-3.4375720024108887 -12.227949142456055 -6.234316349029541
-3.1627681255340576 -4.830816268920898 8.308233261108398
-3.1217355728149414 -5.432514667510986 -9.331299781799316
-3.3743221759796143 3.5391337871551514 -18.554702758789062
-3.4378161430358887 16.457244873046875 8.294038772583008
-3.381871461868286 9.840131759643555 12.38232707977295
-3.3703179359436035 18.66431427001953 5.859394073486328
-3.4106223583221436 17.906795501708984 6.7327775955200195
-2.9647326469421387 -13.003277778625488 -2.8083834648132324
-3.4536819458007812 21.74675178527832 0.9537103772163391
-3.5028553009033203 7.213257789611816 6.945826530456543
-3.3171932697296143 24.980539321899414 0.3143428862094879
-3.3722939491271973 3.9099903106689453 -19.780649185180664
-3.4553120136260986 -2.532496929168701 14.413681030273438
-3.450092315673828 23.342540740966797 1.3574081659317017
-3.3338966369628906 25.03725814819336 0.07654575258493423
-3.4064764976501465 5.263304710388184 6.702269554138184
-3.4322574138641357 16.94919204711914 7.968559265136719
-3.357717990875244 19.90802574157715 4.783055305480957
-3.4363224506378174 -3.751115322113037 10.990599632263184
-3.5117504596710205 14.834979057312012 5.805943012237549
-3.317213773727417 23.487918853759766 1.0268235206604004
-3.3650691509246826 3.550809383392334 -19.52810287475586
-3.3006930351257324 15.475385665893555 5.718837261199951
-3.4864089488983154 23.23757553100586 2.3906240463256836
-3.3072547912597656 2.5949771404266357 -18.320159912109375
-3.2123494148254395 -10.73054313659668 -8.226852416992188
-3.3200347423553467 5.592144012451172 -18.657604217529297
-3.2910609245300293 18.01427459716797 4.322927474975586
-2.940117835998535 6.84976053237915 7.174942970275879
-3.178074836730957 -4.344346523284912 9.305078506469727
-3.3445258140563965 8.890334129333496 13.676702499389648
-3.3221633434295654 2.1123695373535156 -18.441146850585938
-3.145946741104126 23.082786560058594 -1.268669605255127
-3.261073589324951 -0.9275429844856262 -12.247063636779785
-3.395263671875 -11.148821830749512 -0.3926989436149597
-3.2691268920898438 -7.660505771636963 -9.939292907714844
-3.3525378704071045 3.4650371074676514 -19.14910888671875
-3.2860374450683594 3.4431910514831543 -19.960464477539062
-3.3742575645446777 -1.656211495399475 15.3543701171875
-3.3747520446777344 13.887652397155762 8.954327583312988
-3.318636655807495 -6.333975791931152 5.863522529602051
-3.223932981491089 -11.691015243530273 -7.166069984436035
-3.3726413249969482 5.643670082092285 -18.7954044342041
-3.3572468757629395 -0.3300844728946686 -16.436771392822266
-3.1649599075317383 3.0721287727355957 -17.968963623046875
-3.3545660972595215 5.655585289001465 16.305721282958984
-3.297826051712036 2.135650157928467 -19.30118751525879
-3.1191606521606445 -4.041596412658691 10.477487564086914
-3.2128632068634033 4.424141883850098 -19.153173446655273
-3.1540863513946533 -3.2208075523376465 -15.121175765991211
-3.273580551147461 11.700648307800293 9.84865951538086
-3.2401282787323 -12.269231796264648 -2.2164318561553955
-3.2469534873962402 0.7451952695846558 16.89889144897461
-3.3234074115753174 3.070361852645874 16.935617446899414
-3.2139179706573486 4.533782958984375 6.570072174072266
-3.121335983276367 20.41826629638672 2.4733309745788574
-3.2004623413085938 4.970187187194824 -21.030120849609375
-3.310718059539795 -2.6907992362976074 -5.704764366149902
-3.263486862182617 -0.5395461320877075 -16.947673797607422
-3.3394806385040283 -0.5673738121986389 -9.206762313842773
-3.275139331817627 1.8320624828338623 -18.5467472076416
-3.353062391281128 6.379881858825684 -19.37932777404785
-3.2946205139160156 -0.5003244876861572 -8.546977043151855
-3.2505996227264404 -0.8369180560112 16.151779174804688
-3.1460251808166504 22.296188354492188 2.8531088829040527
-3.2395737171173096 16.96493911743164 7.766073703765869
-3.267583131790161 8.972078323364258 7.019168853759766
-3.0636234283447266 5.871949195861816 -18.769277572631836
-3.077507495880127 -0.9367755651473999 -16.970836639404297
-2.9824249744415283 -2.7958741188049316 -16.029972076416016
-3.217198610305786 7.158649444580078 15.433444023132324
-3.1872100830078125 24.51052474975586 -1.6407108306884766
-3.281144380569458 4.515085220336914 16.849613189697266
-3.2556354999542236 23.523195266723633 2.0623393058776855
-3.20100736618042 4.490189552307129 -20.788589477539062
-3.2866897583007812 -0.8654114007949829 -10.628725051879883
-3.2669777870178223 -8.5444974899292 -9.76077651977539
-3.2328884601593018 1.8617089986801147 -17.72831153869629
-3.2266030311584473 -0.7236167788505554 -7.699268341064453
-3.1397461891174316 -13.578947067260742 -5.021632194519043
-3.2582297325134277 -7.256610870361328 4.7613396644592285
-3.1884706020355225 -12.854817390441895 -3.517721176147461
-3.1280624866485596 23.285083770751953 1.3628562688827515
-3.1882097721099854 17.765031814575195 6.470970153808594
-3.253117084503174 22.61029052734375 -0.3972236216068268
-3.2156920433044434 -12.620529174804688 -6.56404972076416
-3.2161574363708496 21.77801513671875 0.9562166929244995
-3.254267930984497 17.48880958557129 4.652324676513672
-3.1603293418884277 -1.402819275856018 -6.892624855041504
-3.0131947994232178 -13.757014274597168 -4.372704982757568
-3.1256537437438965 1.5333164930343628 -18.641986846923828
-3.217158794403076 -0.13655045628547668 -16.05544090270996
-3.032839775085449 22.893667221069336 -0.944133460521698
-2.9189541339874268 -11.909125328063965 -0.5452274084091187
-3.5133280754089355 -1.2681162357330322 -15.141408920288086
-3.127269983291626 3.979579448699951 -19.089054107666016
-2.9233953952789307 -0.9131170511245728 -13.464426040649414
-2.9576258659362793 10.201878547668457 12.01325798034668
-3.2093379497528076 16.488819122314453 8.216141700744629
-3.1450581550598145 15.31837272644043 8.23817253112793
-3.173398733139038 13.741823196411133 8.799086570739746
-3.1905524730682373 -1.0446308851242065 -14.3845853805542
-3.2716617584228516 14.701883316040039 5.878172874450684
-3.2422585487365723 2.8481717109680176 1.1072803735733032
-3.076298952102661 -4.521679401397705 -9.637449264526367
-2.732586145401001 24.213573455810547 -2.5776607990264893
-3.0096049308776855 -11.395301818847656 -7.892785549163818
-3.0588154792785645 16.37067222595215 8.068443298339844
-3.027085781097412 20.920246124267578 1.8137410879135132
-3.1532814502716064 -8.20947551727295 3.69037127494812
-3.092715263366699 23.931148529052734 0.797836422920227
-3.1719954013824463 3.284020185470581 1.9530473947525024
-3.16290283203125 -5.651328086853027 7.032446384429932
-3.010874032974243 19.511066436767578 4.377725124359131
-3.1225032806396484 11.147367477416992 10.294991493225098
-3.0564560890197754 3.6540627479553223 -18.406429290771484
-3.0907363891601562 -4.947134494781494 -9.403406143188477
-3.1199049949645996 15.021530151367188 8.013370513916016
-3.05350923538208 1.5681840181350708 -17.142208099365234
-3.108907699584961 10.920515060424805 6.294101238250732
-3.0420448780059814 16.621681213378906 5.135878086090088
-3.0129876136779785 18.317556381225586 5.359678745269775
-3.076752185821533 7.630045413970947 7.183551788330078
-3.027310848236084 24.609968185424805 0.7073469161987305
-2.791532039642334 -1.5470061302185059 -4.31719446182251
-3.134570360183716 8.418035507202148 7.161294460296631
-3.1400346755981445 2.517672538757324 -19.773086547851562
-2.8301377296447754 3.555701732635498 -17.954524993896484
-3.083933115005493 1.6595313549041748 -0.8196045756340027
-2.8723433017730713 -3.924429416656494 -10.167413711547852
-3.0358128547668457 0.1281484216451645 -15.923266410827637
-3.0674986839294434 12.079169273376465 9.507323265075684
-3.0877370834350586 13.569631576538086 8.450361251831055
-2.9848458766937256 5.184409141540527 -21.05502700805664
-3.0247111320495605 5.323335647583008 -18.65570068359375
-2.9820306301116943 6.518393039703369 -20.52803611755371
-3.067340850830078 -9.300260543823242 -9.487382888793945
-3.067706346511841 18.380077362060547 4.251772880554199
-2.9176056385040283 22.929285049438477 2.179658889770508
-2.722175121307373 6.5356316566467285 -21.13736343383789
-2.9253220558166504 3.2132232189178467 -20.151559829711914
-3.050673246383667 2.4710934162139893 -17.597225189208984
-3.032346725463867 3.664816379547119 2.91856050491333
-2.990072727203369 5.028510093688965 -18.860239028930664
-3.1311893463134766 3.6874992847442627 -18.877811431884766
-2.981360673904419 9.272775650024414 13.41680908203125
-3.035020351409912 17.55059814453125 4.794690132141113
-3.0237691402435303 -1.8192615509033203 -16.6430721282959
-2.9551925659179688 9.37571907043457 6.913912296295166
-3.0349998474121094 16.75546646118164 7.3887810707092285
-2.9793007373809814 0.49372926354408264 -2.3300094604492188
-2.996025800704956 -10.129376411437988 1.5729869604110718
-2.909503221511841 23.298419952392578 -1.2764009237289429
-2.627375602722168 1.5575928688049316 17.203603744506836
-2.9734463691711426 -0.8648878931999207 -14.792340278625488
-2.856274366378784 -6.509121894836426 -9.932024002075195
-3.0157573223114014 -9.253634452819824 2.580655097961426
-2.7764174938201904 23.09806251525879 1.6775710582733154
-2.87404203414917 23.397537231445312 0.7352010607719421
-2.809156894683838 -12.25947380065918 -7.4528303146362305
-3.0479941368103027 21.599056243896484 3.068340539932251
-2.950169086456299 12.21434211730957 9.212335586547852
-2.817767381668091 8.175527572631836 14.792348861694336
-3.336784839630127 6.294989585876465 6.920041561126709
-2.7460100650787354 -13.914753913879395 -6.987232208251953
-3.093308448791504 -3.7859318256378174 -12.533465385437012
-2.834246873855591 17.470989227294922 5.567661285400391
-2.9116439819335938 -0.03870987147092819 16.763668060302734
-2.993051290512085 21.963598251342773 0.8738328814506531
-2.895080804824829 16.141525268554688 7.556626796722412
-2.9666991233825684 22.927581787109375 -0.46368393301963806
-2.863584280014038 -0.6224247217178345 -10.649406433105469
-3.0083937644958496 15.277748107910156 5.987450122833252
-2.9477341175079346 18.267160415649414 4.741594314575195
-2.5709359645843506 6.729849815368652 -22.041324615478516
-2.9454269409179688 3.886448383331299 3.8266799449920654
-2.9822516441345215 -0.32831794023513794 -9.13115119934082
-2.866337776184082 15.957853317260742 7.665626525878906
-2.8812530040740967 21.686817169189453 1.2482693195343018
-2.9710679054260254 14.087715148925781 8.027901649475098
-2.308408260345459 6.828598976135254 -21.896411895751953
-2.9658780097961426 -0.6894108653068542 -11.486786842346191
-2.875861644744873 3.9359214305877686 -18.35793113708496
-2.8158955574035645 11.882283210754395 9.087169647216797
-2.921670436859131 5.762040138244629 16.472332000732422
-2.954503059387207 15.191118240356445 7.706600189208984
-2.9478440284729004 -0.29997894167900085 -15.333444595336914
-2.7429420948028564 25.267623901367188 -0.04646358639001846
-3.023270606994629 -3.967026472091675 -11.312528610229492
-2.6709020137786865 6.27736759185791 -19.20485496520996
-2.9335684776306152 -0.2585794925689697 -8.398344993591309
-2.865196704864502 21.10045051574707 2.3518271446228027
-2.788193464279175 1.4017267227172852 -18.834514617919922
-2.9231481552124023 20.515369415283203 2.9510343074798584
-2.6678175926208496 4.674525260925293 -21.01755142211914
-2.6487770080566406 5.204358100891113 -21.08309555053711
-2.906540870666504 21.956159591674805 2.51385235786438
-2.9232730865478516 20.946943283081055 3.039125919342041
-2.8290858268737793 9.788334846496582 6.770732879638672
-2.804583787918091 24.039457321166992 0.6273162364959717
-2.928638458251953 25.032878875732422 0.5264221429824829
-2.837704658508301 2.7222869396209717 -17.564062118530273
-2.893833875656128 13.917327880859375 7.5312981605529785
-2.8814151287078857 17.65511131286621 5.039796352386475
-2.8984150886535645 11.12605094909668 10.181523323059082
-2.827068567276001 16.486852645874023 7.2243757247924805
-2.9105427265167236 -3.798941135406494 -10.552216529846191
-2.750636577606201 21.3216495513916 1.8247963190078735
-2.8465569019317627 -14.629467964172363 -5.566464424133301
-2.847846508026123 -14.3103609085083 -6.309561252593994
-2.9301724433898926 2.2110533714294434 -19.64456558227539
-2.875361680984497 4.05488920211792 4.830031394958496
-2.8747177124023438 4.073428630828857 -20.586055755615234
-2.793501377105713 16.856983184814453 5.155880928039551
-2.7683260440826416 -0.38299116492271423 -7.847647666931152
-2.818577527999878 22.977279663085938 1.3105428218841553
-2.866549253463745 15.128358840942383 7.326572418212891
-2.8164474964141846 7.0931878089904785 15.703405380249023
-2.876927137374878 13.009193420410156 8.425371170043945
-2.561096429824829 -14.363812446594238 -3.302305221557617
-2.881566286087036 22.219600677490234 0.7993836402893066
-2.758662223815918 10.58725357055664 6.581601142883301
-2.797835350036621 13.024762153625488 7.58477258682251
-2.7163138389587402 -12.78746509552002 -7.354016304016113
-2.7960939407348633 23.136005401611328 -0.18362915515899658
-2.870636224746704 -8.336860656738281 -10.069269180297852
-2.749995470046997 -10.411163330078125 1.696240782737732
-2.863147735595703 9.081341743469238 7.230083465576172
-2.775376558303833 -0.5032530426979065 -17.409992218017578
-2.774062395095825 3.2484054565429688 17.119754791259766
-2.590151309967041 23.347522735595703 -1.055040955543518
-2.682244062423706 5.784695625305176 -18.65839195251465
-2.7848496437072754 -0.6712234616279602 -14.912493705749512
-2.847846508026123 4.556807518005371 16.995712280273438
-2.815351724624634 -5.63599157333374 7.691351890563965
-2.7455666065216064 4.458461761474609 -19.013591766357422
-2.7937538623809814 23.02037811279297 0.5409449934959412
-2.7035422325134277 4.041689872741699 -18.977157592773438
-2.722824811935425 -3.355548143386841 -15.079904556274414
-2.7346596717834473 6.017003059387207 -18.980093002319336
-2.578810453414917 -15.275004386901855 -4.526737689971924
-2.373399257659912 8.874568939208984 7.6371870040893555
-2.8176589012145996 15.291679382324219 6.197786808013916
-2.631422519683838 17.044246673583984 5.626526832580566
-2.706984043121338 3.7230727672576904 -18.57779312133789
-2.685364246368408 15.627601623535156 6.792217254638672
-2.6774017810821533 -0.8835498094558716 -14.352325439453125
-2.650247812271118 11.898622512817383 8.809572219848633
-2.6363556385040283 11.2394437789917 9.59424877166748
-2.6813857555389404 -2.420738697052002 -5.596859455108643
-2.684659481048584 15.186976432800293 6.69426965713501
-2.803656816482544 -2.346632480621338 -5.856778621673584
-2.6657068729400635 -6.104170799255371 -9.908231735229492
-2.163726329803467 6.397791862487793 -19.53680419921875
-2.5410561561584473 -2.2212491035461426 -5.350058555603027
-2.6737160682678223 4.431056022644043 6.357039451599121
-2.737089157104492 -4.822330474853516 -9.722307205200195
-2.7656784057617188 -4.490893363952637 10.17728042602539
-2.7636473178863525 -10.346662521362305 -8.946948051452637
-2.6516799926757812 -3.763676404953003 -12.684978485107422
-2.761033773422241 -0.8514596819877625 -7.215456962585449
-2.501910448074341 -11.754717826843262 -8.258138656616211
-2.7605834007263184 10.554282188415527 11.12731647491455
-2.6869146823883057 15.7816743850708 6.361820220947266
-2.4812862873077393 24.208555221557617 -2.562371015548706
-2.6459314823150635 24.60161018371582 0.6592878103256226
-2.6442108154296875 -4.9560136795043945 9.164628028869629
-2.58188533782959 -0.5727149844169617 -11.235761642456055
-2.65054988861084 16.16036033630371 5.828509330749512
-2.6447243690490723 0.11237514019012451 -15.546991348266602
-2.7187857627868652 25.12797737121582 -0.43697112798690796
-2.666529417037964 3.398200273513794 -17.979106903076172
-2.7188668251037598 15.170491218566895 6.400305271148682
-2.593427896499634 -0.4379054009914398 -10.010396957397461
-2.675142765045166 13.980961799621582 7.197685241699219
-2.598546028137207 11.975239753723145 7.66387414932251
-2.5399587154388428 11.32715129852295 6.7496185302734375
-2.6242706775665283 9.098695755004883 13.749444961547852
-2.542224645614624 -2.1949360370635986 -16.547168731689453
-2.6212258338928223 22.326322555541992 1.4301948547363281
-2.5519447326660156 -0.20234528183937073 -9.268078804016113
-2.413449764251709 -16.57869529724121 -5.736417770385742
-2.619849920272827 23.53041648864746 0.03621826320886612
-2.441551446914673 -15.335100173950195 -3.9183239936828613
-2.5562610626220703 16.14151954650879 6.173649787902832
-2.5715911388397217 22.500986099243164 1.9358606338500977
-2.655045986175537 25.329513549804688 -0.4082396924495697
-2.40045428276062 -12.545344352722168 -0.5039582252502441
-2.5991146564483643 -9.497734069824219 -9.635530471801758
-2.6735358238220215 -6.515804290771484 6.510329246520996
-2.621750593185425 11.944863319396973 8.423248291015625
-2.662123918533325 17.021224975585938 5.306478500366211
-2.6974422931671143 24.98794174194336 0.5801953077316284
-2.5325210094451904 21.903032302856445 1.882375955581665
-2.5816574096679688 2.549960136413574 -17.564716339111328
-2.5289723873138428 -0.11440521478652954 -8.571622848510742
-2.5026917457580566 -3.8356640338897705 -11.358548164367676
-2.6324057579040527 -7.29970645904541 -10.307778358459473
-2.5347964763641357 23.55661392211914 -0.9704070091247559
-2.47178316116333 23.459087371826172 -0.5067958831787109
-2.6164236068725586 3.9969754219055176 -20.48842430114746
-2.628448009490967 2.423734188079834 -19.809101104736328
-2.5342307090759277 12.784573554992676 6.792073726654053
-2.4254441261291504 -0.7015926241874695 -14.897204399108887
-2.581110715866089 1.0356836318969727 -16.3879337310791
-2.5012001991271973 4.772994041442871 6.944411277770996
-2.4918441772460938 -0.8968526721000671 -13.458251953125
-2.5609755516052246 -3.737375259399414 -10.468949317932129
-2.5033507347106934 25.291574478149414 -0.1882779598236084
-2.5574874877929688 9.919782638549805 12.432695388793945
-2.54547381401062 -8.931455612182617 3.4228549003601074
-2.4851534366607666 -2.802924871444702 -16.090137481689453
-2.4862163066864014 -3.369323253631592 -14.2880220413208
-2.583913564682007 -15.586769104003906 -5.051150321960449
-2.5826680660247803 6.407909393310547 7.230808258056641
-2.4944217205047607 6.88287878036499 15.909317016601562
-2.574392795562744 -4.0917253494262695 12.546332359313965
-2.464473009109497 -9.938228607177734 2.4836952686309814
-2.4248838424682617 23.93588638305664 0.00528030376881361
-2.569352626800537 -3.630902051925659 13.569467544555664
-2.473827838897705 -5.976847171783447 -10.004437446594238
-2.236858367919922 5.013320446014404 -18.89664077758789
-2.3544106483459473 9.57520580291748 7.600992679595947
-2.366321086883545 -0.6021668314933777 -10.693127632141113
-2.4046127796173096 24.891613006591797 -0.9033434987068176
-2.5521082878112793 -7.0963029861450195 5.832388401031494
-2.5623748302459717 -0.5826756954193115 -17.332122802734375
-2.381476879119873 -11.340474128723145 1.2098424434661865
-2.4236793518066406 1.5996906757354736 -18.906017303466797
-2.374960422515869 -4.638869285583496 -10.0010986328125
-2.4958651065826416 12.52933406829834 7.190901279449463
-2.898367166519165 -0.8610724210739136 -3.627014636993408
-2.0851616859436035 6.685001373291016 -21.66817283630371
-2.066556453704834 -13.347604751586914 -0.8788016438484192
-2.3308448791503906 6.007393836975098 -18.760101318359375
-2.4770236015319824 1.018635630607605 -16.857763290405273
-2.465836763381958 2.219104766845703 -17.841907501220703
-2.44236159324646 3.0245912075042725 -18.020782470703125
-2.4247395992279053 -3.94299054145813 -10.001334190368652
-2.2560582160949707 0.6234411597251892 -2.875049114227295
-2.438344717025757 -14.264422416687012 -7.6253509521484375
-2.193355083465576 -14.349876403808594 -2.438831090927124
-2.4634652137756348 24.660648345947266 0.1595308631658554
-2.493194103240967 -2.7743477821350098 14.697558403015137
-2.4498021602630615 10.418972969055176 11.23935604095459
-2.3618454933166504 2.0080831050872803 -19.33321189880371
-2.3484299182891846 10.041704177856445 7.272634029388428
-2.390397548675537 -0.2357441633939743 -15.572494506835938
-2.3907837867736816 10.614198684692383 10.223313331604004
-2.303785800933838 10.71738338470459 9.427870750427246
-2.477295398712158 -4.190266132354736 -9.92147159576416
-2.461832284927368 -24.435020446777344 -14.0155668258667
-2.597013473510742 3.796456813812256 -18.793838500976562
-2.3384928703308105 3.5617172718048096 -18.343883514404297
-2.403998851776123 11.266581535339355 7.885994911193848
-2.438204765319824 -23.96835708618164 -13.785962104797363
-2.334261655807495 24.48665428161621 -1.9458138942718506
-2.4194111824035645 24.590736389160156 0.24996916949748993
-1.9933627843856812 6.349090099334717 -19.513818740844727
-2.3484091758728027 -23.526670455932617 -13.321981430053711
-2.441408634185791 -1.876129388809204 15.5575532913208
-2.1062350273132324 -3.1782143115997314 -14.860086441040039
-2.3704822063446045 23.95466423034668 -0.5351609587669373
-2.333961009979248 -1.1277248859405518 -16.898971557617188
-2.3768036365509033 -0.44168907403945923 -17.28078842163086
-2.3125362396240234 -23.592227935791016 -13.098962783813477
-2.4098448753356934 -10.366973876953125 -9.168157577514648
-2.30008864402771 10.844133377075195 7.204819679260254
-2.1890265941619873 -0.775766134262085 -11.823019981384277
-2.217545747756958 -0.1121685728430748 -16.56980323791504
-2.2474093437194824 4.091404438018799 -19.207754135131836
-2.415938138961792 -4.235651016235352 11.708200454711914
-2.326188087463379 23.959369659423828 -0.40743231773376465
-2.2732038497924805 -16.243064880371094 -7.143352508544922
-2.2315244674682617 24.39173698425293 -2.259958505630493
-2.313493251800537 -3.5225014686584473 -12.38233757019043
-2.335221767425537 3.7626023292541504 -20.203210830688477
-2.37914776802063 25.096111297607422 -0.8421487808227539
-2.294330596923828 7.550351619720459 15.399484634399414
-2.3532488346099854 4.4906206130981445 -19.069034576416016
-2.3727385997772217 2.7487196922302246 -18.239322662353516
-2.270663261413574 -12.45172119140625 -8.274185180664062
-2.0399489402770996 8.301687240600586 7.887388706207275
-2.3923394680023193 -7.656216621398926 5.1144118309021
-2.232287883758545 2.8322525024414062 -19.797576904296875
-2.4486706256866455 3.115030527114868 0.8298051953315735
-2.414336919784546 -1.2019518613815308 16.13983726501465
-2.338376045227051 1.9623100757598877 -1.1466739177703857
-2.2505500316619873 4.584413528442383 -20.703222274780273
-2.3403522968292236 -8.065543174743652 -10.232311248779297
-2.2394442558288574 -25.319190979003906 -14.860751152038574
-2.188802719116211 2.2088119983673096 17.28421401977539
-1.936279296875 6.369480133056641 -19.091503143310547
-2.231903553009033 -23.936702728271484 -12.943826675415039
-2.2503411769866943 0.6329354047775269 -17.177791595458984
-2.1945292949676514 -7.041070461273193 -10.303943634033203
-2.3311662673950195 3.591899871826172 1.8530347347259521
-2.2055954933166504 24.557931900024414 -0.7733830213546753
-2.234067678451538 25.062686920166016 -0.8686949014663696
-2.0593795776367188 -3.48128080368042 -10.177759170532227
-2.298407793045044 11.286300659179688 7.453469276428223
-2.328855037689209 -0.739338219165802 -7.291777610778809
-2.0730741024017334 6.678065299987793 -21.835983276367188
-2.1677377223968506 5.302391052246094 -18.67672348022461
-2.323453903198242 -0.2929351031780243 -8.042830467224121
-2.10562801361084 -1.8491699695587158 -16.47739028930664
-2.270477771759033 1.2090766429901123 -2.215315341949463
-2.1274948120117188 -17.3729190826416 -5.156591415405273
-2.241208791732788 7.400911808013916 7.62930965423584
-2.2277987003326416 -3.149914264678955 -13.903653144836426
-2.2173080444335938 3.6064000129699707 -19.090810775756836
-2.2475204467773438 -11.54978084564209 -8.63136100769043
-2.1858694553375244 9.25878620147705 13.406112670898438
-2.119978904724121 -24.1328067779541 -12.902090072631836
-2.054727077484131 -1.0279381275177002 -15.128942489624023
-2.2863612174987793 3.8627994060516357 2.794316291809082
-2.2224457263946533 0.8528547286987305 -17.83554458618164
-2.242192029953003 -20.580249786376953 -13.926507949829102
-2.177885055541992 -0.8019223213195801 -16.626544952392578
-2.2208333015441895 -3.1670193672180176 -13.1682767868042
-2.2369818687438965 -0.893669605255127 -14.750460624694824
-2.169046640396118 10.750662803649902 9.226898193359375
-2.1565260887145996 -24.946680068969727 -14.432809829711914
-2.1458680629730225 -6.209303855895996 -10.347021102905273
-2.122784376144409 24.536907196044922 -1.680232286453247
-2.2207894325256348 -4.443751335144043 11.122767448425293
-2.1620523929595947 5.259741306304932 -20.872085571289062
-2.238572120666504 2.110743999481201 -18.329788208007812
-2.1700778007507324 1.8653087615966797 -18.631038665771484
-2.1588540077209473 -23.939998626708984 -13.420992851257324
-2.136411666870117 10.233445167541504 7.766602993011475
-2.1812167167663574 -14.825460433959961 -8.059873580932617
-2.2300825119018555 -20.978221893310547 -13.609811782836914
-2.1796441078186035 -4.334717750549316 -9.997715950012207
-1.8843414783477783 -2.0019993782043457 -6.179769039154053
-2.032026529312134 8.215105056762695 14.745330810546875
-2.109912633895874 -0.6478443145751953 -10.100663185119629
-2.0155539512634277 10.423018455505371 8.94690990447998
-2.2087128162384033 -20.802677154541016 -14.073687553405762
-2.082563638687134 5.054472923278809 -20.849231719970703
-2.098499298095703 3.982964277267456 3.5751724243164062
-2.144843578338623 -1.191127896308899 -13.687664985656738
-2.053614616394043 -20.50876808166504 -14.326434135437012
-2.0569229125976562 -9.155713081359863 3.6346659660339355
-2.150399923324585 5.860803127288818 16.657352447509766
-2.1162571907043457 -20.575462341308594 -13.019994735717773
-2.1933319568634033 0.48509663343429565 17.191864013671875
-2.138725757598877 3.5675690174102783 -19.638591766357422
-2.051593065261841 -17.800405502319336 -6.3826799392700195
-2.1903531551361084 -19.683156967163086 -11.234996795654297
-2.125965118408203 -21.04269790649414 -14.101702690124512
-2.1556501388549805 9.763239860534668 12.41856861114502
-2.2162795066833496 -24.735315322875977 -14.073633193969727
-2.1654622554779053 -18.77340316772461 -12.170766830444336
-2.1007323265075684 -3.7726073265075684 -9.90739917755127
-2.0927066802978516 -21.2965030670166 -14.030380249023438
-1.8744564056396484 -11.822002410888672 1.5561126470565796
-2.175962448120117 -20.591796875 -13.450063705444336
-1.9038050174713135 -24.268728256225586 -12.917404174804688
-1.7130740880966187 0.20132136344909668 17.197656631469727
-2.1747703552246094 -10.550426483154297 2.242006540298462
-2.1525959968566895 -19.117481231689453 -10.764781951904297
-2.0466108322143555 -16.384441375732422 -8.119050979614258
-2.127110242843628 -21.16400909423828 -13.157055854797363
-2.189695358276367 4.12010383605957 4.921712398529053
-2.1331183910369873 2.2434182167053223 -19.258846282958984
-2.0377707481384277 2.534376621246338 -18.759723663330078
-2.0463624000549316 -17.089120864868164 -4.665557861328125
-2.052919864654541 2.9708070755004883 -18.603252410888672
-2.0471339225769043 -0.22517648339271545 -8.867246627807617
-2.1254801750183105 -20.270648956298828 -13.585772514343262
-2.052645206451416 4.649028778076172 -19.265567779541016
-1.935455322265625 10.030340194702148 8.45453929901123
-2.109995126724243 -0.651599109172821 -16.18369483947754
-2.0709962844848633 4.32553768157959 -19.887985229492188
-2.118119478225708 -1.1829912662506104 -4.8193254470825195
-1.9828392267227173 7.011571407318115 16.004825592041016
-2.1024584770202637 -2.7601616382598877 -15.858098983764648
-1.9431813955307007 10.200427055358887 9.643651008605957
-1.9967740774154663 -13.68121337890625 -8.741722106933594
-1.923974633216858 -24.870189666748047 -14.355123519897461
-1.7168382406234741 2.481863498687744 17.368478775024414
-1.9935152530670166 2.976694345474243 -19.358531951904297
-1.9967561960220337 -24.495105743408203 -13.753896713256836
-2.2066431045532227 -1.1196768283843994 -14.518915176391602
-1.9445464611053467 -21.297758102416992 -12.64975357055664
-2.0787320137023926 5.764931678771973 -18.693889617919922
-1.9874961376190186 -17.658048629760742 -12.980130195617676
-2.088747501373291 -12.379183769226074 -8.644796371459961
-2.0565149784088135 4.571488380432129 17.177637100219727
-2.077383518218994 -5.1001996994018555 9.952250480651855
-2.091524362564087 -8.316924095153809 4.517960548400879
-2.0807714462280273 -17.91188621520996 -11.3745698928833
-1.8799371719360352 8.695947647094727 14.082898139953613
-2.100431442260742 -5.776256084442139 8.52296257019043
-1.8972022533416748 -7.726254940032959 -10.233644485473633
-2.0676302909851074 -20.73061180114746 -11.3604154586792
-1.6159934997558594 4.505124092102051 6.369648456573486
-2.1024720668792725 3.412997007369995 -18.611141204833984
-1.915016531944275 -24.854015350341797 -14.576028823852539
-1.8414974212646484 4.999433994293213 -20.492599487304688
-2.0858113765716553 -17.50581932067871 -7.3417534828186035
-2.076404333114624 -2.6732325553894043 -13.5166597366333
-2.105409622192383 5.68204927444458 -18.571727752685547
-1.981380820274353 -1.1217596530914307 -12.253183364868164
-2.031304121017456 -20.71331214904785 -13.429275512695312
-1.9447758197784424 9.988351821899414 11.21008586883545
-1.9492019414901733 -18.833749771118164 -7.074126243591309
-2.01063871383667 2.434279680252075 -19.05050277709961
-2.0013251304626465 -0.8865659832954407 -10.83979606628418
-1.9118579626083374 6.018123149871826 7.54388427734375
-2.0796892642974854 -20.030054092407227 -13.237707138061523
-1.9454143047332764 -21.93499183654785 -12.424633026123047
-1.944535493850708 -20.80357551574707 -14.068685531616211
-2.0286383628845215 -2.8782238960266113 -15.3429536819458
-2.023315668106079 6.531683921813965 -19.312572479248047
-1.7757346630096436 -20.718774795532227 -14.254992485046387
-2.0345726013183594 -9.226173400878906 -9.805327415466309
-2.0129334926605225 -2.0712177753448486 -13.4552001953125
-1.984691858291626 9.393037796020508 8.065183639526367
-1.3248488903045654 1.003411054611206 17.595947265625
-2.054215908050537 -1.5214293003082275 -13.621975898742676
-1.993804931640625 -21.50173568725586 -13.309335708618164
-1.9678140878677368 -17.16192054748535 -12.037837982177734
-1.8379199504852295 -20.5899600982666 -14.438308715820312
-1.9174073934555054 -3.331820011138916 -9.82774543762207
-2.033372402191162 -20.024127960205078 -10.005115509033203
-1.9524250030517578 -18.710514068603516 -10.008788108825684
-1.7876121997833252 -19.459110260009766 -14.031702041625977
-1.980015754699707 -14.841888427734375 -8.580909729003906
-1.8954814672470093 -0.3637264370918274 -8.228959083557129
-1.9075912237167358 -18.656078338623047 -6.798796653747559
-1.759069800376892 -23.05007553100586 -12.737090110778809
-2.0073018074035645 -6.387677192687988 7.51635217666626
-1.896623969078064 -21.6966552734375 -11.390140533447266
-1.8300386667251587 -20.030078887939453 -14.028177261352539
-1.8406734466552734 -20.864864349365234 -14.505767822265625
-1.9899858236312866 -11.310172080993652 -8.947996139526367
-1.861143708229065 -20.270122528076172 -13.647058486938477
-1.6694473028182983 -12.616464614868164 0.875266432762146
-1.8957548141479492 -2.7613255977630615 -11.724605560302734
-1.8683273792266846 -15.840649604797363 -3.0240390300750732
-1.8661918640136719 7.6048150062561035 15.462722778320312
-1.4698079824447632 4.9699859619140625 7.420735836029053
-1.8522284030914307 -2.431976795196533 -15.784215927124023
-1.9386866092681885 -10.489736557006836 -9.276712417602539
-2.003192901611328 -1.42547607421875 -14.911737442016602
-1.8535192012786865 -18.49024772644043 -13.882085800170898
-1.5904914140701294 5.696708679199219 7.624291896820068
-1.8348424434661865 5.358959197998047 -20.52752685546875
-1.7294518947601318 6.6403703689575195 -21.539302825927734
-2.023885488510132 -0.7173541188240051 -7.392086029052734
-1.9531790018081665 -1.4945555925369263 -16.2634220123291
-1.9103143215179443 -17.073745727539062 -11.282657623291016
-1.9775644540786743 -0.02030639722943306 -3.737704038619995
-1.8649476766586304 -19.11717987060547 -8.129666328430176
-1.9330298900604248 -1.2158819437026978 -15.882986068725586
-1.80954909324646 -22.14630699157715 -12.669326782226562
-1.81044602394104 -2.1697566509246826 -11.584558486938477
-1.9214394092559814 -6.976877689361572 -10.525247573852539
-1.8334980010986328 5.201140880584717 -19.100107192993164
-1.922053337097168 -1.6461093425750732 -14.517618179321289
-1.8808284997940063 -17.369853973388672 -13.045867919921875
-1.8765506744384766 -23.183452606201172 -12.452116012573242
-1.7689368724822998 6.411711692810059 -19.93246078491211
-1.8902136087417603 -2.787700653076172 -14.574060440063477
-1.8415000438690186 -2.2000346183776855 -14.394338607788086
-1.8987114429473877 -2.7158122062683105 -15.032440185546875
-1.9092748165130615 -6.8588056564331055 6.803079128265381
-1.8371303081512451 -19.64664077758789 -9.625699996948242
-1.2741222381591797 1.8927204608917236 17.60489845275879
-1.8532583713531494 -16.952739715576172 -12.547354698181152
-1.8685293197631836 -2.1893911361694336 -14.802978515625
-1.7902847528457642 -21.68059539794922 -13.26598834991455
-1.8706496953964233 5.646770477294922 -19.088977813720703
-1.787980318069458 9.412408828735352 12.679290771484375
-1.635690450668335 -0.5445119142532349 -8.869873046875
-1.8026840686798096 -22.247753143310547 -11.975496292114258
-1.7086946964263916 -21.09144401550293 -14.564041137695312
-1.8656604290008545 -16.367341995239258 -8.623714447021484
-1.7920863628387451 5.529329299926758 -19.050064086914062
-1.4393771886825562 -8.663833618164062 -9.875545501708984
-1.7759240865707397 -17.721393585205078 -8.59998607635498
-1.6998603343963623 -14.924585342407227 -1.6778571605682373
-1.7137868404388428 -23.32211685180664 -12.747949600219727
-1.8485424518585205 -10.1224946975708 2.870424509048462
-1.8171790838241577 -20.881439208984375 -8.601751327514648
-1.821204423904419 -12.308520317077637 -8.959283828735352
-1.8354192972183228 -21.21539878845215 -9.192117691040039
-1.7736307382583618 -19.0234317779541 -6.050387859344482
-1.8038060665130615 -17.231426239013672 -10.61331558227539
-1.7963106632232666 4.873049736022949 -20.017404556274414
-1.7400524616241455 -1.0446268320083618 -9.994502067565918
-1.717222809791565 -23.521793365478516 -12.162498474121094
-1.7933361530303955 -20.163930892944336 -7.768616676330566
-1.8121474981307983 -3.9365413188934326 -9.949430465698242
-1.5854322910308838 -24.35113525390625 -13.680685043334961
-1.8274637460708618 -5.49185037612915 -10.413252830505371
-1.8173631429672241 -21.969322204589844 -11.191545486450195
-1.8325889110565186 -19.110820770263672 -8.387147903442383
-1.7974380254745483 -21.720674514770508 -9.1065092086792
-1.6493040323257446 7.180711269378662 7.999858856201172
-1.8257114887237549 -21.56319236755371 -10.85403060913086
-1.7939691543579102 -22.37059211730957 -10.686408996582031
-1.6596406698226929 9.60842227935791 11.897430419921875
-1.669658899307251 -24.36680030822754 -13.027761459350586
-1.7968393564224243 -1.9879627227783203 -15.564458847045898
-1.6919158697128296 6.596648216247559 -21.003610610961914
-1.7579381465911865 -2.6419055461883545 -9.975679397583008
-1.7226555347442627 5.492914199829102 -19.789541244506836
-1.541659951210022 6.677079200744629 -21.10598373413086
-1.4429066181182861 -17.079784393310547 -14.729205131530762
-1.4427183866500854 -23.410493850708008 -12.673633575439453
-1.7566940784454346 -21.427671432495117 -8.427807807922363
-1.6255048513412476 -1.4597529172897339 -10.774019241333008
-1.6287635564804077 9.102663040161133 8.462079048156738
-1.7671432495117188 -20.787628173828125 -9.182303428649902
-1.7304900884628296 -14.980607986450195 -8.882392883300781
-1.7063230276107788 -20.789583206176758 -9.892930030822754
-1.7444276809692383 6.5539870262146 -19.78680992126465
-1.4055036306381226 -24.36700439453125 -13.224035263061523
-1.2753238677978516 -17.770923614501953 -3.189305543899536
-1.4666163921356201 -7.395010948181152 6.185229778289795
-1.699306845664978 -2.927370309829712 -9.414926528930664
-1.7238337993621826 -22.811372756958008 -12.43311882019043
-1.7253170013427734 -13.509305000305176 -8.986902236938477
-1.7290098667144775 -22.189373016357422 -9.188692092895508
-1.6736125946044922 -22.775108337402344 -11.407462120056152
-1.7131001949310303 -16.531381607055664 -11.705262184143066
-1.5932668447494507 -22.207958221435547 -12.858426094055176
-1.74857497215271 -21.682313919067383 -13.779815673828125
-1.4034780263900757 -24.27523422241211 -13.962328910827637
-1.5382006168365479 -20.306446075439453 -14.483169555664062
-1.6922893524169922 -19.505329132080078 -9.007486343383789
-1.4715163707733154 -13.88244342803955 -0.26144084334373474
-1.7010908126831055 -3.338768482208252 -9.585298538208008
-1.5034700632095337 6.59298038482666 -20.342992782592773
-1.6569916009902954 -18.380817413330078 -8.842816352844238
-1.6961662769317627 -22.822280883789062 -11.897394180297852
-1.6974213123321533 -6.203886032104492 -10.669260025024414
-1.6489675045013428 -20.302804946899414 -7.320638179779053
-1.6740314960479736 -18.503000259399414 -9.65585994720459
-1.3832933902740479 -4.766180515289307 -10.368922233581543
-1.6876296997070312 -16.068233489990234 -8.922013282775879
-1.6261297464370728 6.107369422912598 -20.892024993896484
-1.4451959133148193 9.392444610595703 8.934289932250977
-1.592268466949463 5.961376667022705 -20.176494598388672
-1.620764136314392 -1.9714168310165405 -9.67808723449707
-1.5902525186538696 -22.817358016967773 -9.957464218139648
-1.6564477682113647 -3.6900668144226074 -9.705316543579102
-1.5860130786895752 -0.884371280670166 -5.080748081207275
-1.5966973304748535 -16.782487869262695 -13.199984550476074
-1.4930907487869263 -19.873291015625 -9.362939834594727
-1.6128911972045898 6.453530788421631 -19.705474853515625
-1.664110779762268 -0.7080642580986023 -7.772706031799316
-1.5065009593963623 -21.627559661865234 -14.144635200500488
-1.490495204925537 -1.6957216262817383 -9.602616310119629
-1.5368574857711792 -24.568233489990234 -13.992523193359375
-1.5103914737701416 8.020367622375488 8.436738967895508
-1.5387910604476929 9.700175285339355 9.288233757019043
-1.3685195446014404 -20.21769142150879 -14.195245742797852
-1.4556699991226196 -23.800371170043945 -12.237152099609375
-1.3319817781448364 -18.487279891967773 -4.051398277282715
-1.415810227394104 -18.178699493408203 -14.651117324829102
-1.4554790258407593 -16.732934951782227 -14.067422866821289
-1.6024391651153564 -20.111658096313477 -14.263360977172852
-1.6335550546646118 -19.046222686767578 -5.391980171203613
-1.617523193359375 -17.575551986694336 -10.125777244567871
-1.5878808498382568 -20.117794036865234 -9.433916091918945
-1.625478744506836 3.386112689971924 17.353551864624023
-1.514648675918579 -10.707590103149414 -9.370641708374023
-1.3744205236434937 -23.338869094848633 -10.68593692779541
-1.5734859704971313 -23.011167526245117 -12.677300453186035
-1.6110398769378662 -1.7319923639297485 -5.9559125900268555
-1.5435893535614014 -20.206363677978516 -7.044759273529053
-1.575913906097412 -9.562400817871094 -9.649824142456055
-1.3333317041397095 -20.72134780883789 -6.601832389831543
-1.570522427558899 -22.39786148071289 -8.774788856506348
-1.5718915462493896 -17.026018142700195 -10.612367630004883
-1.5730780363082886 -1.3111317157745361 -9.76565933227539
-1.5739514827728271 -8.470564842224121 4.684319019317627
-1.5731165409088135 -11.019892692565918 2.6012966632843018
-1.5551154613494873 -1.2001510858535767 -7.156243324279785
-1.1578649282455444 -7.9690704345703125 5.423499584197998
-1.471026062965393 -9.370481491088867 3.796471118927002
-1.4756033420562744 -19.395366668701172 -9.431164741516113
-1.5382940769195557 -16.490604400634766 -11.892098426818848
-1.419266700744629 -16.678293228149414 -11.074057579040527
-1.5166934728622437 -20.220300674438477 -9.370687484741211
-1.399120569229126 -22.447429656982422 -13.273330688476562
-1.5345064401626587 3.3634579181671143 0.6694992184638977
-1.4841464757919312 2.360154628753662 -1.206931471824646
-1.4798123836517334 -12.091581344604492 -9.131994247436523
-1.421391248703003 -1.0168027877807617 -9.091047286987305
-1.3290332555770874 -17.1058349609375 -9.165340423583984
-1.3560240268707275 -18.23617935180664 -9.640619277954102
-1.4558402299880981 -21.516822814941406 -7.778021335601807
-1.4269942045211792 -22.85445213317871 -12.990484237670898
-1.453534483909607 3.80787992477417 1.7854284048080444
-1.4409193992614746 -3.6074929237365723 -9.776995658874512
-1.390615701675415 -23.46279525756836 -13.130590438842773
-1.3021140098571777 -2.6702723503112793 -8.899670600891113
-1.4803755283355713 -11.74702262878418 2.1480698585510254
-1.4175047874450684 1.4262107610702515 -2.615410804748535
-1.4747270345687866 -3.6940207481384277 13.940274238586426
-1.248623013496399 -23.517114639282227 -12.837423324584961
-1.4104790687561035 -16.582660675048828 -12.760796546936035
-1.3850951194763184 -13.637235641479492 -9.074151992797852
-1.4613388776779175 -4.477864742279053 12.19042682647705
-1.3281736373901367 -22.52073860168457 -8.289469718933105
-1.4572093486785889 -4.176371097564697 13.001147270202637
-1.2313826084136963 -15.216705322265625 -1.107712984085083
-1.2883248329162598 -19.865943908691406 -14.774261474609375
-1.1198920011520386 4.003482818603516 2.622112274169922
-1.3376328945159912 -1.4316627979278564 -9.217301368713379
-1.3309160470962524 -1.1291731595993042 -7.683694362640381
-1.4349744319915771 -2.8104469776153564 14.936563491821289
-1.0405817031860352 4.186755180358887 5.1729512214660645
-1.4601949453353882 -15.167404174804688 -9.004700660705566
-1.457293152809143 -4.740119457244873 11.378783226013184
-1.3340650796890259 9.58723258972168 11.011640548706055
