NOTE openvision4
VERSION .7
FIELDS x y z
TYPE F F F
COUNT 1 1 1
WIDTH 840
HEIGHT 1
VIEWPOINT 0 0 0 1 0 0 0
POINTS 840
DATA ascii
-25.139911651611328 3.9763901233673096 49.57733154296875
-23.38982391357422 25.34035873413086 48.33173751831055
-31.52499771118164 -24.807296752929688 37.60480499267578
-30.321556091308594 -21.75745391845703 43.6396484375
-20.730056762695312 48.22372817993164 42.412818908691406
-30.76130485534668 -33.31083297729492 58.470340728759766
-26.670364379882812 -0.6986273527145386 40.685333251953125
-22.54512596130371 55.954219818115234 11.475828170776367
-19.242225646972656 89.48558044433594 -5.784411907196045
-32.154441833496094 -41.31666946411133 49.1002197265625
-16.115558624267578 95.38629913330078 23.830211639404297
-25.070066452026367 63.72032928466797 -18.526622772216797
-22.511608123779297 56.250850677490234 7.521295070648193
-32.88270950317383 -34.77987289428711 35.92912292480469
-15.091657638549805 91.59080505371094 36.911869049072266
-17.57815170288086 93.63098907470703 3.446031332015991
-24.56018829345703 63.08349609375 -14.644969940185547
-24.347166061401367 62.08346176147461 -11.953125
-23.205472946166992 77.1378402709961 -26.257736206054688
-16.186994552612305 75.33280181884766 47.31241989135742
-31.922164916992188 -29.12997817993164 37.8387336730957
-29.041099548339844 -29.23647117614746 62.641326904296875
-16.890979766845703 69.4337158203125 48.36838150024414
-22.709579467773438 58.202423095703125 -5.480388641357422
-27.91353988647461 11.406705856323242 17.756393432617188
-29.86641502380371 -19.53118896484375 43.71865463256836
-28.71358299255371 -19.17531967163086 53.54663848876953
-32.45402526855469 -41.015769958496094 44.71848678588867
-26.447538375854492 65.28596496582031 -37.60962677001953
-23.922090530395508 75.5773696899414 -30.32172203063965
-23.919862747192383 12.7252197265625 51.05826187133789
-23.892215728759766 7.558931350708008 52.25084686279297
-25.311742782592773 72.00827026367188 -47.71256637573242
-27.61490821838379 -20.811410903930664 61.14868927001953
-29.89869499206543 -20.486047744750977 38.40327835083008
-31.512863159179688 -37.72034454345703 55.35547637939453
-30.793136596679688 -24.872724533081055 34.220497131347656
-24.235870361328125 62.55883026123047 -8.036065101623535
-17.919118881225586 59.9272575378418 43.85886764526367
-30.825763702392578 -28.167701721191406 32.97230911254883
-25.749536514282227 32.02381134033203 8.387239456176758
-27.678550720214844 -20.116966247558594 58.19129943847656
-27.93003273010254 -23.70126724243164 63.28728103637695
-26.15056610107422 66.97187042236328 -43.512630462646484
-29.373483657836914 -36.69929122924805 60.32054901123047
-24.85732078552246 38.80525207519531 8.44303035736084
-24.83829116821289 73.9423828125 -38.99516677856445
-14.562846183776855 82.95637512207031 44.76084518432617
-28.505441665649414 -16.317964553833008 44.27808380126953
-25.72161293029785 68.87670135498047 -50.46385192871094
-16.5992431640625 64.27355194091797 47.98562240600586
-25.075565338134766 -2.0453908443450928 50.104087829589844
-23.229228973388672 18.568449020385742 50.86064910888672
-31.890966415405273 -41.566444396972656 41.923274993896484
-22.727815628051758 48.3188362121582 8.344022750854492
-28.852558135986328 -33.09513473510742 62.300785064697266
-25.007993698120117 61.5252685546875 -27.81769371032715
-29.66918182373047 -43.75137710571289 55.80845642089844
-24.517192840576172 73.2887954711914 -43.26951599121094
-25.78112030029297 -4.1796979904174805 45.7658576965332
-25.462373733520508 62.39861297607422 -34.9002685546875
-17.936817169189453 55.66734313964844 44.165157318115234
-16.353843688964844 93.89913940429688 0.8617886900901794
-28.040620803833008 -16.58885955810547 38.013404846191406
-23.68951416015625 75.56935119628906 -37.975364685058594
-37.05194854736328 44.03977584838867 -117.48678588867188
-26.215187072753906 22.40194320678711 10.36789608001709
-30.304372787475586 -45.29090881347656 51.4716796875
-21.70224380493164 53.566184997558594 7.783008575439453
-18.726179122924805 86.02986145019531 -15.507070541381836
-29.324914932250977 -21.26297950744629 33.62144088745117
-30.62256622314453 -45.47328567504883 45.770179748535156
-37.32899475097656 39.59632873535156 -116.76260375976562
-26.947763442993164 -4.983088493347168 29.988981246948242
-36.50445556640625 43.778995513916016 -118.11026763916016
-27.378616333007812 3.821953058242798 20.821449279785156
-13.060896873474121 89.63345336914062 41.79999542236328
-22.901458740234375 60.81813049316406 -15.992817878723145
-20.030170440673828 80.62019348144531 -26.82525062561035
-26.505226135253906 -13.423208236694336 44.371910095214844
-26.843530654907227 -25.629636764526367 66.00927734375
-35.9781494140625 45.422367095947266 -114.80217742919922
-26.56045913696289 -14.172167778015137 52.75746536254883
-36.849342346191406 39.59816360473633 -117.53466033935547
-18.21046257019043 46.710472106933594 46.35944747924805
-31.20285987854004 -33.961647033691406 30.192319869995117
-13.172871589660645 97.1138916015625 28.278554916381836
-12.361120223999023 100.12000274658203 20.58311653137207
-26.52260971069336 -32.12350082397461 65.72515869140625
-30.617191314697266 -30.19568634033203 29.516504287719727
-25.28702163696289 -12.772526741027832 56.87567901611328
-11.8346586227417 96.76275634765625 33.66892623901367
-18.861698150634766 82.96192169189453 -22.22615623474121
-26.249008178710938 -10.353038787841797 38.991050720214844
-24.00589370727539 -1.5491746664047241 53.55561447143555
-21.544809341430664 11.906232833862305 55.33203887939453
-19.52359962463379 35.18660354614258 49.70521545410156
-13.040943145751953 99.37841796875 14.738899230957031
-22.237104415893555 77.04155731201172 -34.73270034790039
-19.283031463623047 22.568817138671875 54.413002014160156
-25.402544021606445 -19.81786346435547 66.55221557617188
-25.23517417907715 -17.197952270507812 64.49343872070312
-25.152082443237305 63.68135070800781 -42.40690994262695
-26.04134750366211 -28.6075382232666 67.04042053222656
-30.48151397705078 -43.90443420410156 39.719459533691406
-22.20665740966797 59.179508209228516 -10.813944816589355
-36.084930419921875 38.291961669921875 -117.0084228515625
-25.394031524658203 -11.215404510498047 51.42749786376953
-20.78898048400879 79.34990692138672 -33.03135299682617
-34.19577407836914 47.26162338256836 -111.72323608398438
-29.1267147064209 -25.779298782348633 28.686260223388672
-24.524333953857422 69.92901611328125 -55.64348220825195
-21.77838134765625 58.96342086791992 -8.301196098327637
-27.453920364379883 -39.250492095947266 63.460384368896484
-15.746430397033691 92.48907470703125 -6.287208557128906
-30.804832458496094 -37.81222152709961 32.336856842041016
-21.056114196777344 53.822696685791016 3.027907133102417
-25.996068954467773 10.168353080749512 13.380459785461426
-25.167438507080078 -8.40115737915039 50.59833526611328
-26.505468368530273 -5.186870574951172 25.760059356689453
-29.075300216674805 -27.93695068359375 28.10271644592285
-26.981708526611328 -14.547846794128418 40.153560638427734
-34.15645217895508 45.187408447265625 -110.44902801513672
-15.580841064453125 59.86345672607422 46.45964813232422
-11.611161231994629 93.95333862304688 39.254215240478516
-25.69550895690918 70.28395080566406 -60.35198211669922
-22.765125274658203 74.63247680664062 -51.05026626586914
-34.123722076416016 48.17742156982422 -111.38663482666016
-22.15914535522461 76.13417053222656 -48.122039794921875
-21.610183715820312 46.930206298828125 5.766149044036865
-36.114990234375 36.43227005004883 -116.8331527709961
-23.774688720703125 -14.11447811126709 62.32147216796875
-27.617656707763672 -18.224618911743164 34.61573791503906
-34.93403625488281 48.31681442260742 -118.0918960571289
-25.08780860900879 73.15547943115234 -61.80585861206055
-24.25086784362793 -9.32126235961914 55.382389068603516
-24.491191864013672 72.00873565673828 -56.564308166503906
-23.676095962524414 32.52478790283203 5.261258125305176
-23.795372009277344 72.33206939697266 -52.49727249145508
-26.39146614074707 -11.820329666137695 35.45448303222656
-25.289060592651367 71.08269500732422 -66.52223205566406
-26.004207611083984 68.46232604980469 -66.86298370361328
-26.82110595703125 -15.920587539672852 35.924827575683594
-22.753780364990234 39.05460739135742 5.10371732711792
-33.46360778808594 43.538307189941406 -110.40560913085938
-32.75918960571289 49.44306182861328 -119.46044921875
-9.94881820678711 100.64678955078125 26.488914489746094
-24.4488582611084 -29.042556762695312 68.75306701660156
-29.502866744995117 -49.11549377441406 46.03239440917969
-20.581701278686523 51.52299118041992 4.869765281677246
-19.3723201751709 16.095352172851562 56.79974365234375
-23.159255981445312 65.48128509521484 -52.34019470214844
-24.02942657470703 -22.015718460083008 69.35502624511719
-13.39119815826416 67.972412109375 51.280643463134766
-30.540386199951172 -34.25864028930664 26.4976863861084
-23.00410270690918 59.86231994628906 -28.06374168395996
-12.54452896118164 73.77265930175781 50.9065055847168
-32.519989013671875 51.86013412475586 -113.27416229248047
-19.22633934020996 79.53955841064453 -38.08659744262695
-23.22704315185547 73.82447052001953 -55.651397705078125
-23.445158004760742 60.44581604003906 -33.482704162597656
-13.015933990478516 98.19914245605469 7.545259475708008
-32.118343353271484 -38.8212776184082 19.18869400024414
-21.726341247558594 1.1961050033569336 58.154876708984375
-23.7282657623291 26.41476058959961 5.477917194366455
-31.583786010742188 -36.76572799682617 16.699495315551758
-30.145998001098633 -38.266014099121094 28.036678314208984
-32.06251525878906 -43.63502883911133 18.77207374572754
-24.244340896606445 68.39006042480469 -55.880950927734375
-35.54067611694336 45.631343841552734 -117.66632843017578
-30.137910842895508 -32.66218948364258 22.1511173248291
-25.228017807006836 67.3602294921875 -62.73653030395508
-30.67864990234375 47.611785888671875 -105.80474853515625
-25.912933349609375 66.28765869140625 -67.26895141601562
-27.872360229492188 -22.719545364379883 28.538330078125
-13.481069564819336 64.7947998046875 50.876224517822266
-32.093875885009766 -40.736167907714844 14.07480239868164
-25.710716247558594 2.9492478370666504 16.223634719848633
-27.632343292236328 -20.610538482666016 30.398103713989258
-30.624250411987305 41.366573333740234 -117.2671127319336
-23.019695281982422 75.39253997802734 -61.04848861694336
-29.46529769897461 -48.84838104248047 40.33828353881836
-23.706829071044922 62.6492919921875 -44.01607131958008
-30.36458969116211 -35.17683792114258 23.714561462402344
-20.389415740966797 53.382667541503906 -0.38744914531707764
-9.850180625915527 96.8377456665039 37.165672302246094
-15.067188262939453 53.848243713378906 47.3724479675293
-21.196435928344727 59.581886291503906 -18.09853744506836
-20.07608413696289 48.60245895385742 4.521506309509277
-18.250764846801758 79.77486419677734 -43.58543014526367
-22.286296844482422 -7.741697788238525 60.524322509765625
-16.81875228881836 29.579687118530273 54.358280181884766
-25.895002365112305 -13.368680953979492 30.01402473449707
-10.98086929321289 81.39410400390625 48.487220764160156
-25.1982421875 65.62568664550781 -71.43770599365234
-13.635882377624512 61.58553695678711 49.53648376464844
-29.41578483581543 -40.987159729003906 29.36861228942871
-28.632709503173828 -43.505489349365234 34.00318908691406
-28.550674438476562 -50.071990966796875 48.48489761352539
-33.25034713745117 43.04872131347656 -109.97010040283203
-23.371423721313477 73.30886840820312 -66.13043975830078
-24.510820388793945 70.45918273925781 -69.95512390136719
-9.943490028381348 102.75613403320312 18.82488250732422
-33.02501678466797 50.56680679321289 -113.50597381591797
-31.505752563476562 -46.30691909790039 17.30722999572754
-29.908018112182617 -34.154083251953125 12.310047149658203
-25.718795776367188 -3.7331666946411133 20.803285598754883
-32.93409729003906 34.978172302246094 -117.1554183959961
-32.929298400878906 40.13581848144531 -112.14749908447266
-19.883588790893555 57.435359954833984 -8.224053382873535
-28.352195739746094 -26.30225944519043 24.39811134338379
-19.371158599853516 51.97935485839844 3.0412495136260986
-20.355009078979492 58.890804290771484 -13.566072463989258
-20.28679847717285 57.675201416015625 -11.149571418762207
-22.07632827758789 -28.421689987182617 72.18974304199219
-23.841188430786133 12.629638671875 8.699480056762695
-13.360894203186035 59.48675537109375 48.50577163696289
-28.746402740478516 -30.11939239501953 17.54164695739746
-21.76821517944336 31.73090934753418 3.3067450523376465
-32.201908111572266 51.08404541015625 -118.61943817138672
-10.627402305603027 101.77116394042969 12.294986724853516
-32.281044006347656 44.2957878112793 -107.77931213378906
-9.213812828063965 91.24834442138672 43.70584487915039
-29.75133514404297 57.30004119873047 -100.11481475830078
-23.820030212402344 -33.644737243652344 69.77570343017578
-31.628551483154297 49.758792877197266 -108.88442993164062
-29.33187484741211 56.23530578613281 -97.13619232177734
-21.14185333251953 75.83113861083984 -54.40544128417969
-29.470264434814453 54.21808624267578 -99.33879852294922
-31.334911346435547 -40.268375396728516 10.773602485656738
-17.99667739868164 81.79914855957031 -27.326919555664062
-44.99541091918945 -86.3806381225586 -51.26240539550781
-24.592552185058594 65.11687469482422 -65.75550079345703
-22.751325607299805 66.08727264404297 -56.507659912109375
-16.007884979248047 88.41375732421875 -16.12569808959961
-25.338930130004883 -19.313711166381836 28.80963706970215
-25.1630859375 66.58255004882812 -73.53434753417969
-20.31221580505371 77.83527374267578 -47.38543701171875
-45.490623474121094 -89.91265869140625 -52.97175979614258
-29.670705795288086 -42.09508514404297 26.794780731201172
-29.539432525634766 55.90672302246094 -102.71449279785156
-21.3005428314209 -13.897980690002441 69.26046752929688
-21.369430541992188 39.87599182128906 3.853686809539795
-21.340368270874023 77.08036804199219 -59.88700866699219
-44.361541748046875 -86.25676727294922 -51.99747085571289
-33.41187286376953 34.555908203125 -116.7494125366211
-30.288747787475586 -46.357627868652344 21.130687713623047
-19.154621124267578 4.658172607421875 61.50314712524414
-11.07240104675293 99.30286407470703 1.3728196620941162
-29.477317810058594 57.91590881347656 -102.25873565673828
-30.13193130493164 -35.360809326171875 10.387306213378906
-32.00605392456055 -50.70280838012695 12.673553466796875
-44.85568618774414 -89.9996337890625 -53.601375579833984
-31.179094314575195 -39.79121398925781 8.720697402954102
-24.36249542236328 63.97589874267578 -71.14691925048828
-30.968454360961914 -47.17972946166992 18.03652572631836
-27.613739013671875 57.7684326171875 -93.16806030273438
-31.936643600463867 -56.89181900024414 10.017234802246094
-30.44220733642578 49.99812698364258 -106.27008056640625
-12.948592185974121 94.30196380615234 -9.811104774475098
-24.21487808227539 69.05218505859375 -73.37541961669922
-26.240726470947266 63.04970932006836 -84.23648834228516
-19.801523208618164 -10.079266548156738 67.95498657226562
-27.71792221069336 59.591064453125 -97.20613098144531
-30.74043083190918 53.80765151977539 -115.46920776367188
-29.805585861206055 51.77602005004883 -103.16973114013672
-27.36273193359375 56.70584487915039 -92.14850616455078
-27.574573516845703 -28.308399200439453 17.79556655883789
-22.783353805541992 -40.75613784790039 69.16595458984375
-28.996885299682617 54.30855178833008 -102.96241760253906
-28.88581085205078 -49.640785217285156 39.17438507080078
-15.733716011047363 48.668853759765625 2.4602153301239014
-30.397632598876953 46.233211517333984 -105.28246307373047
-20.82988166809082 -16.947954177856445 71.52687072753906
-29.95682716369629 53.640316009521484 -112.6800765991211
-23.763490676879883 5.20341682434082 11.133647918701172
-27.812015533447266 58.56075668334961 -94.9480972290039
-44.17084884643555 -91.38279724121094 -53.753055572509766
-11.468048095703125 97.7609634399414 -3.7921524047851562
-15.483531951904297 83.20923614501953 -25.381378173828125
-20.19468879699707 59.009117126464844 -26.027252197265625
-17.615970611572266 -5.937419414520264 68.20066833496094
-14.174321174621582 34.683597564697266 54.45793151855469
-27.66380500793457 -52.73464584350586 43.02890396118164
-27.397079467773438 -45.09855270385742 59.34733581542969
-40.93007278442383 -82.48652648925781 -44.22004318237305
-19.43618392944336 -4.506236553192139 64.41568756103516
-20.880373001098633 59.60744857788086 -33.034793853759766
-28.571086883544922 58.40537643432617 -104.87983703613281
-42.401878356933594 -85.79802703857422 -44.56971740722656
-7.474704265594482 96.13236999511719 40.4913330078125
-21.31412124633789 62.435787200927734 -45.92145919799805
-20.97513771057129 -25.222000122070312 72.85865020751953
-17.462451934814453 50.79151153564453 2.8514785766601562
-30.2149658203125 40.90217971801758 -109.54969787597656
-44.92132568359375 -92.24150085449219 -54.176334381103516
-28.635175704956055 52.12449264526367 -98.82096862792969
-7.262937068939209 99.76702117919922 33.78652572631836
-29.831377029418945 51.703250885009766 -108.45303344726562
-31.67367172241211 49.39596939086914 -118.52754974365234
-12.668411254882812 52.0732307434082 49.73384094238281
-25.506450653076172 64.6207504272461 -84.85955047607422
-30.196083068847656 -37.694740295410156 7.826336860656738
-22.260337829589844 71.86732482910156 -73.27588653564453
-18.928802490234375 59.36027908325195 -18.98215675354004
-42.55992126464844 -88.55535125732422 -45.002532958984375
-20.103788375854492 79.40143585205078 -59.143272399902344
-29.684667587280273 42.19135284423828 -106.82976531982422
-31.01937484741211 -49.05533218383789 7.086559772491455
-14.890737533569336 44.57719421386719 50.16411209106445
-19.458158493041992 78.72012329101562 -54.389522552490234
-42.70527648925781 -82.60216522216797 -49.905250549316406
-23.111875534057617 64.41899871826172 -63.87333297729492
-16.521032333374023 51.76128005981445 0.9962956309318542
-31.917638778686523 -58.63680648803711 7.136703968048096
-24.728382110595703 -14.282974243164062 24.883989334106445
-42.27334213256836 -86.86332702636719 -42.593780517578125
-24.44269561767578 -8.832906723022461 19.962196350097656
-24.06861114501953 -2.540508270263672 15.15925121307373
-28.864748001098633 -32.34976577758789 13.818197250366211
-15.297564506530762 85.33560180664062 -22.004467010498047
-20.38089370727539 -35.743980407714844 74.11341094970703
-29.05739974975586 53.362911224365234 -116.47003173828125
-19.989877700805664 76.8607406616211 -65.6474838256836
-17.87602424621582 53.49831008911133 -2.582545042037964
-26.295007705688477 56.327213287353516 -90.23592376708984
-24.18248748779297 66.67339324951172 -81.69639587402344
-40.391048431396484 -81.14266967773438 -50.12662124633789
-28.040273666381836 54.79141616821289 -105.25701141357422
-22.642719268798828 62.98369216918945 -70.3970718383789
-26.552295684814453 -47.97270202636719 32.695011138916016
-29.445030212402344 39.485198974609375 -111.23991394042969
-21.08149528503418 26.52157974243164 2.7825212478637695
-18.264598846435547 59.11405563354492 -15.071893692016602
-17.076496124267578 81.00071716308594 -32.24191665649414
-30.0971736907959 -40.641578674316406 5.9409308433532715
-25.46457290649414 -22.021926879882812 25.815780639648438
-30.686080932617188 -47.6330451965332 5.8839287757873535
-27.642444610595703 -44.47328186035156 30.203243255615234
-26.51304054260254 -25.974063873291016 20.88202667236328
-28.203289031982422 53.184326171875 -106.91153717041016
-41.23236083984375 -82.45654296875 -43.363468170166016
-21.503664016723633 21.765880584716797 3.6247541904449463
-18.25071144104004 57.52296829223633 -11.809944152832031
-24.886302947998047 -48.657474517822266 58.79032897949219
-13.771358489990234 90.18719482421875 -16.5521183013916
-29.443279266357422 45.37354278564453 -104.76519012451172
-29.944250106811523 -58.85105895996094 15.368709564208984
-31.720291137695312 -62.10859680175781 10.103108406066895
-28.993488311767578 -49.10365676879883 19.04836654663086
-25.95833969116211 62.414310455322266 -99.0851821899414
-17.661449432373047 57.02992248535156 -8.68298625946045
-41.79304885864258 -90.53224182128906 -43.880287170410156
-26.552831649780273 61.11143493652344 -97.04319763183594
-23.344133377075195 68.40996551513672 -81.42684173583984
-31.330808639526367 -54.54247283935547 6.019051551818848
-26.82640266418457 -49.9257926940918 53.93309020996094
-25.26016616821289 64.10552978515625 -89.8545913696289
-7.302742958068848 102.26972961425781 26.06998634338379
-27.049724578857422 59.342140197753906 -106.28433227539062
-28.192556381225586 53.145957946777344 -110.60025787353516
-43.390628814697266 -84.96847534179688 -50.63751220703125
-30.512739181518555 42.59549331665039 -117.88446044921875
-21.71355628967285 11.98231029510498 6.081991672515869
-29.80930519104004 38.8230094909668 -117.29942321777344
-15.031013488769531 24.875 57.592987060546875
-18.741071701049805 -18.983049392700195 74.03764343261719
-27.685388565063477 53.54291915893555 -94.5057373046875
-25.228042602539062 57.267208099365234 -86.52220916748047
-35.537967681884766 -75.7733154296875 -2.0320048332214355
-8.53526496887207 103.34404754638672 11.360077857971191
-34.87969207763672 -73.61266326904297 0.9561169147491455
-28.555683135986328 53.740440368652344 -113.8784408569336
-27.64931869506836 51.197113037109375 -98.4813003540039
-34.77095413208008 -75.0589828491211 3.5303659439086914
-34.07307815551758 -69.70403289794922 3.44180965423584
-18.64731788635254 79.46571350097656 -54.17011642456055
-33.96998596191406 -71.47628784179688 5.77122688293457
-7.638723373413086 104.3809585571289 18.017587661743164
-27.294845581054688 57.2830696105957 -106.52953338623047
-35.21773910522461 -74.29341125488281 -2.539236307144165
-24.38335418701172 65.80794525146484 -91.5826644897461
-27.26594352722168 -46.22820281982422 25.83875274658203
-38.631378173828125 -89.0483169555664 -52.13421630859375
-19.231571197509766 80.17537689208984 -59.57706832885742
-42.17193603515625 -94.58979797363281 -55.057430267333984
-21.421621322631836 72.2462387084961 -73.56426239013672
-8.990667343139648 66.61149597167969 53.429412841796875
-35.01396179199219 -77.7706069946289 0.05955034866929054
-23.117321014404297 -43.94157791137695 66.18814086914062
-28.319734573364258 -51.42847442626953 18.214614868164062
-21.142189025878906 65.11410522460938 -58.04838943481445
-23.75152587890625 -21.442514419555664 24.488426208496094
-29.774904251098633 -46.776737213134766 4.526464462280273
-17.97818374633789 37.45664978027344 1.6052641868591309
-29.396339416503906 -54.65967559814453 17.462162017822266
-28.55594825744629 -36.58137130737305 5.974203109741211
-22.327238082885742 69.3463134765625 -80.24325561523438
-33.63828659057617 -67.95874786376953 1.2128344774246216
-32.23173141479492 -64.73001098632812 6.712080001831055
-20.840822219848633 64.1883316040039 -61.19010543823242
-29.45586585998535 33.65947723388672 -117.1162338256836
-23.515090942382812 -19.706026077270508 23.696786880493164
-27.975120544433594 34.14787292480469 -118.02931213378906
-27.711565017700195 -33.39017868041992 7.787036895751953
-15.511534690856934 10.806578636169434 63.302005767822266
-38.89536666870117 -85.78055572509766 -38.21434020996094
-26.609773635864258 -30.049142837524414 11.96370792388916
-41.091651916503906 -91.04949188232422 -45.432884216308594
-23.68597984313965 -15.085415840148926 22.107641220092773
-41.10716247558594 -94.31625366210938 -55.35619354248047
-38.99928283691406 -83.83152770996094 -29.628334045410156
-26.411224365234375 -53.50857162475586 47.09797286987305
-21.982135772705078 5.153277397155762 8.513042449951172
-33.875 -71.05198669433594 -0.2316831350326538
-39.3342399597168 -85.68836975097656 -31.295259475708008
-16.681467056274414 60.27251052856445 -18.787799835205078
-38.770362854003906 -86.13561248779297 -27.804716110229492
-15.355796813964844 80.99093627929688 -31.726308822631836
-39.846187591552734 -90.67113494873047 -39.93003463745117
-27.33070945739746 49.86054611206055 -118.66397857666016
-33.98874282836914 -76.82282257080078 4.160760879516602
-7.475618839263916 73.51165771484375 53.54947280883789
-23.20721435546875 -9.753256797790527 17.399511337280273
-32.38588333129883 -64.12529754638672 2.8457577228546143
-39.868072509765625 -80.19416809082031 -48.56732177734375
-39.84107971191406 -88.85511016845703 -38.95375061035156
-38.786659240722656 -81.5519027709961 -41.57426834106445
-26.076793670654297 59.59820556640625 -107.33740234375
-17.121522903442383 79.48616790771484 -51.96276092529297
-33.248172760009766 -72.86944580078125 7.111381530761719
-25.96486473083496 58.04526138305664 -107.5587387084961
-14.040363311767578 83.37956237792969 -25.970434188842773
-31.89577865600586 -64.07455444335938 0.5154321193695068
-30.315196990966797 -67.30465698242188 11.72695541381836
-22.633773803710938 -3.436934232711792 12.752488136291504
-13.645710945129395 -5.450919151306152 73.5323486328125
-31.920143127441406 -68.55718231201172 8.709429740905762
-24.541913986206055 55.8677978515625 -88.82976531982422
-15.668486595153809 1.0242016315460205 67.59139251708984
-28.17917251586914 44.79110336303711 -104.86007690429688
-9.012091636657715 99.92451477050781 -3.043083906173706
-25.258731842041016 52.616424560546875 -93.2988510131836
-17.142839431762695 59.2139892578125 -27.814937591552734
-18.199974060058594 59.66352462768555 -32.60329055786133
-38.733665466308594 -88.77598571777344 -30.024829864501953
-16.59090232849121 59.354026794433594 -24.308483123779297
-20.537670135498047 -40.63554763793945 73.59574890136719
-26.18911361694336 -52.335243225097656 36.685611724853516
-34.77907180786133 -77.32350158691406 -5.656632423400879
-37.49734878540039 -80.91563415527344 -31.8930606842041
-34.474796295166016 -75.13961791992188 -5.9520955085754395
-23.683856964111328 64.88448333740234 -93.25198364257812
-21.579872131347656 -43.19676971435547 69.97166442871094
-9.202125549316406 45.0861930847168 53.4976692199707
-24.95627784729004 -48.52396774291992 28.928133010864258
-37.785438537597656 -81.98611450195312 -32.939422607421875
-17.809444427490234 80.23429107666016 -59.107608795166016
-11.549858093261719 90.76801300048828 -17.667924880981445
-20.408403396606445 71.0318832397461 -74.66374206542969
-19.575475692749023 74.40190887451172 -69.2551040649414
-15.593338012695312 -26.858184814453125 79.18685913085938
-26.39042854309082 50.4163703918457 -98.6523666381836
-16.323017120361328 58.0067024230957 -12.231801986694336
-27.30739402770996 52.27183151245117 -116.86409759521484
-39.02229690551758 -87.81272888183594 -36.83209991455078
-5.967644214630127 81.14103698730469 51.09569549560547
-26.532005310058594 55.15681076049805 -106.47128295898438
-27.635746002197266 51.12996292114258 -117.5285415649414
-15.369853019714355 53.44642639160156 -2.3440115451812744
-18.241403579711914 79.3305435180664 -62.22798156738281
-21.740921020507812 67.41769409179688 -82.95015716552734
-8.59757137298584 61.15470504760742 52.156890869140625
-19.95557975769043 64.56434631347656 -54.384246826171875
-26.156906127929688 53.557010650634766 -107.83882904052734
-38.63151931762695 -87.08343505859375 -34.53702163696289
-19.094457626342773 64.9956283569336 -58.03657531738281
-25.74800682067871 60.4358024597168 -104.26969909667969
-36.88905334472656 -82.35999298095703 -27.6096248626709
-22.674348831176758 -51.368682861328125 58.7766227722168
-38.266666412353516 -79.19242858886719 -44.00601577758789
-21.167686462402344 61.83625411987305 -73.6830825805664
-12.914083480834961 58.172550201416016 -10.276325225830078
-8.533552169799805 51.130496978759766 52.497440338134766
-9.84207534790039 95.97101593017578 -10.62460708618164
-36.92082214355469 -83.77703857421875 -25.235143661499023
-27.190702438354492 40.70827865600586 -109.40247344970703
-29.8930721282959 -56.311519622802734 0.5668772459030151
-16.349956512451172 -10.792924880981445 73.41563415527344
-25.5780029296875 -55.26422119140625 39.85837936401367
-38.18681335449219 -85.24495697021484 -33.494266510009766
-38.55999755859375 -89.59149932861328 -34.69313049316406
-4.953393459320068 87.45645904541016 47.88618469238281
-16.00310707092285 79.42523956298828 -44.49762725830078
-11.79625129699707 29.903738021850586 57.70647430419922
-21.44487190246582 -47.37116241455078 65.53791809082031
-38.69792938232422 -79.78994750976562 -44.464717864990234
-34.46083068847656 -77.2454605102539 -9.127850532531738
-35.94761657714844 -79.8429183959961 -29.667953491210938
-6.408320426940918 104.45885467529297 10.646148681640625
-37.584312438964844 -88.27204895019531 -26.724838256835938
-7.236833095550537 57.736297607421875 52.70271682739258
-37.74605178833008 -83.7979965209961 -38.66206359863281
-31.180294036865234 -75.25225067138672 8.131016731262207
-13.901114463806152 80.444091796875 -31.568246841430664
-16.801069259643555 -22.32909393310547 76.39134216308594
-3.640298366546631 99.41333770751953 37.52165603637695
-4.799153804779053 103.4894790649414 25.309839248657227
-14.19499397277832 51.402618408203125 1.1989173889160156
-22.736526489257812 55.948795318603516 -89.42227172851562
-39.58162307739258 -92.76166534423828 -44.51211929321289
-23.576732635498047 -24.832380294799805 20.219938278198242
-34.34687805175781 -80.34474182128906 -8.876693725585938
-27.653278350830078 -39.699729919433594 3.4851741790771484
-36.66714096069336 -84.82898712158203 -23.944189071655273
-39.37162399291992 -81.65950775146484 -49.29327392578125
-26.82510757446289 -36.16130065917969 4.141064643859863
-3.8185653686523438 92.89286804199219 44.7282829284668
-23.148664474487305 61.04970932006836 -98.75643920898438
-17.378555297851562 78.14329528808594 -62.742679595947266
-15.554770469665527 61.100494384765625 -21.5693302154541
-37.05991744995117 -79.51847839355469 -45.81376647949219
-33.21866989135742 -81.26465606689453 -6.918349742889404
-31.216520309448242 -79.45755767822266 4.3511199951171875
-6.957679748535156 102.24495697021484 1.2338563203811646
-28.233123779296875 41.13555908203125 -117.52468872070312
-5.128054141998291 105.38091278076172 17.49842643737793
-24.882095336914062 59.00233459472656 -106.43376159667969
-39.203216552734375 -92.2828369140625 -41.58994674682617
-28.569520950317383 -47.6948127746582 2.7971231937408447
-25.10810089111328 -55.782588958740234 44.81951141357422
-35.695274353027344 -80.51728820800781 -22.839258193969727
-25.60122299194336 -32.13199996948242 6.616513252258301
-18.388778686523438 -39.285526275634766 78.85868072509766
-12.169515609741211 22.554067611694336 60.82464599609375
-17.51704978942871 -30.162765502929688 77.41654968261719
-24.74663543701172 54.839698791503906 -106.34716796875
-18.55197525024414 72.6210708618164 -69.04627227783203
-26.8201847076416 44.589027404785156 -105.46722412109375
-20.538043975830078 -45.7462043762207 71.4023666381836
-25.099485397338867 50.29563903808594 -98.95321655273438
-20.489320755004883 62.67241287231445 -70.40384674072266
-24.272693634033203 -29.066627502441406 11.442975997924805
-17.042146682739258 -36.270904541015625 80.74778747558594
-35.83743667602539 -85.93678283691406 -22.59935188293457
-33.40937042236328 -75.03490447998047 -9.635435104370117
-26.211448669433594 42.01250457763672 -107.95694732666016
-13.631607055664062 -13.215428352355957 76.92329406738281
-33.8139533996582 -71.86700439453125 -2.0319113731384277
-37.07106018066406 -84.25928497314453 -36.25697708129883
-29.1676082611084 -62.941078186035156 -1.621350884437561
-9.688567161560059 89.09471893310547 -20.412691116333008
-16.641813278198242 79.69910430908203 -59.531227111816406
-15.880227088928223 77.8398208618164 -53.335445404052734
-14.995689392089844 78.21349334716797 -44.087379455566406
-31.428909301757812 -67.77877807617188 -2.2148728370666504
-18.531917572021484 64.53730010986328 -53.70651626586914
-18.799074172973633 19.97894287109375 1.5543533563613892
-25.291929244995117 -48.66850662231445 23.596288681030273
-26.50717544555664 35.37458038330078 -117.6915054321289
-21.037702560424805 -50.866539001464844 62.70362854003906
-15.914695739746094 78.61213684082031 -59.2259521484375
-22.993206024169922 53.2386360168457 -93.17302703857422
-12.260473251342773 15.283780097961426 64.12589263916016
-25.286718368530273 52.90882873535156 -110.67782592773438
-17.784210205078125 25.08025360107422 0.5345410704612732
-10.099732398986816 37.04045486450195 55.8375358581543
-20.083534240722656 64.36677551269531 -81.68834686279297
-12.481202125549316 81.75912475585938 -28.024860382080078
-35.949249267578125 -81.26680755615234 -33.50131607055664
-25.014528274536133 -48.1284294128418 26.22596549987793
-15.849990844726562 76.15206146240234 -52.131492614746094
-34.078887939453125 -78.06352233886719 -20.46841812133789
-16.00090789794922 60.37507629394531 -33.12142562866211
-18.59632682800293 63.61901092529297 -65.17561340332031
-18.79694938659668 67.5599136352539 -73.82235717773438
-13.913346290588379 59.60750198364258 -14.315183639526367
-25.23809051513672 53.49913787841797 -114.45355987548828
-19.845476150512695 -16.07318878173828 16.039419174194336
-14.512417793273926 60.83162307739258 -18.48957633972168
-37.281375885009766 -90.24388122558594 -29.58246421813965
-34.26422119140625 -79.23309326171875 -32.40258026123047
-19.30461883544922 7.78663969039917 4.7273640632629395
-24.8614559173584 -50.627201080322266 19.48043441772461
-32.38447952270508 -74.04730224609375 -10.935810089111328
-13.213159561157227 79.11414337158203 -34.230377197265625
-14.789688110351562 76.03306579589844 -43.773902893066406
-38.49657440185547 -92.70833587646484 -45.81221008300781
-36.560218811035156 -79.85488891601562 -42.75249481201172
-38.44210433959961 -87.75064086914062 -52.05028533935547
-23.5137882232666 -55.746150970458984 49.13491439819336
-20.133207321166992 61.890098571777344 -75.86322021484375
-22.72793197631836 58.37774658203125 -103.30204010009766
-37.58551788330078 -91.12334442138672 -53.25186538696289
-36.68586349487305 -91.2541275024414 -33.987060546875
-34.78142547607422 -78.96925354003906 -25.96735382080078
-16.261707305908203 30.665435791015625 -0.04611790180206299
-36.46017837524414 -81.4403305053711 -41.532928466796875
-36.80146789550781 -83.62777709960938 -34.37568283081055
-8.221601486206055 94.95248413085938 -13.271525382995605
-19.180217742919922 63.350257873535156 -70.63578796386719
-32.330230712890625 -81.03740692138672 -1.7607982158660889
-14.07721996307373 60.96809768676758 -24.055662155151367
-16.535985946655273 75.65884399414062 -62.34635543823242
-19.729434967041016 -2.1401469707489014 8.465667724609375
-12.703054428100586 0.8898431658744812 70.87288665771484
-25.976459503173828 40.83785629272461 -110.69525146484375
-0.24279578030109406 101.86539459228516 33.33498764038086
-30.675369262695312 -69.7928466796875 -3.9351320266723633
-23.69684410095215 -53.65470504760742 33.52993392944336
-12.178400039672852 7.6345601081848145 67.83062744140625
-22.47247314453125 55.90973663330078 -105.06803131103516
-23.970483779907227 51.53194046020508 -108.07841491699219
-19.250076293945312 -50.13474655151367 67.85456848144531
-22.182912826538086 60.956546783447266 -94.78339385986328
-12.887041091918945 77.696533203125 -35.47880935668945
-5.699796676635742 100.24053955078125 -5.393691539764404
-15.132558822631836 56.231719970703125 -7.506420612335205
-17.926368713378906 -50.462215423583984 77.31612396240234
-28.286226272583008 -62.646297454833984 15.156648635864258
-17.34665870666504 67.11997985839844 -69.11662292480469
-1.6693788766860962 97.15284729003906 41.264183044433594
-24.016637802124023 49.994354248046875 -100.1963882446289
-15.412320137023926 75.42108154296875 -58.91298294067383
-25.42034149169922 44.53853225708008 -107.42001342773438
-26.355369567871094 -47.73385238647461 1.229709506034851
-17.183612823486328 65.85250854492188 -56.7388916015625
-18.99018096923828 64.18184661865234 -74.56542205810547
-37.652164459228516 -95.66675567626953 -55.79029083251953
-15.027215003967285 35.728755950927734 0.15685060620307922
-25.709794998168945 -39.188411712646484 2.1285815238952637
-15.093974113464355 75.66874694824219 -57.78571701049805
-22.969581604003906 51.4173583984375 -98.20738983154297
-14.711627960205078 74.57657623291016 -47.25029373168945
-36.11632537841797 -94.94855499267578 -56.239341735839844
-27.66057014465332 -52.15956115722656 0.3279425799846649
-35.010929107666016 -80.68960571289062 -35.023685455322266
-12.15688419342041 76.38872528076172 -33.99567794799805
-3.9233736991882324 105.17074584960938 10.090538024902344
-15.283217430114746 74.69169616699219 -53.60888671875
-31.219789505004883 -71.72405242919922 -7.792664527893066
-24.593250274658203 50.40211486816406 -119.28837585449219
-26.723020553588867 -56.59014129638672 17.994203567504883
-35.446590423583984 -81.44446563720703 -48.87590789794922
-24.794639587402344 -35.265254974365234 2.8827903270721436
-21.67428970336914 56.23305892944336 -93.37635803222656
-34.12456512451172 -87.42700958251953 -22.402929306030273
-21.246788024902344 58.461299896240234 -89.30168151855469
-36.558502197265625 -93.5974349975586 -43.23871612548828
-36.69093704223633 -93.08502960205078 -46.15898513793945
-22.036794662475586 58.52298355102539 -97.62934112548828
-21.310409545898438 59.633514404296875 -91.44879150390625
-13.656270027160645 60.796730041503906 -26.53994369506836
-23.90334701538086 51.96710968017578 -111.68843078613281
-25.00522232055664 53.1679801940918 -117.03563690185547
-33.66990661621094 -78.5482406616211 -27.370407104492188
-14.687956809997559 71.62947845458984 -47.17390823364258
-18.150115966796875 64.6888427734375 -70.89399719238281
-11.352598190307617 80.95368194580078 -28.221712112426758
-15.460103034973145 74.19194793701172 -61.30409622192383
-25.465112686157227 -52.41083526611328 18.233253479003906
-21.604801177978516 53.74109649658203 -95.4435806274414
-16.935117721557617 -44.101600646972656 83.39395904541016
-17.73002052307129 -47.47629928588867 80.53640747070312
-35.91360092163086 -90.23722839355469 -27.879528045654297
-13.779841423034668 41.21761703491211 0.801124095916748
-37.09410858154297 -92.15966033935547 -39.25558090209961
-17.297006607055664 63.917057037353516 -66.53604125976562
-23.344358444213867 -32.708187103271484 4.31061315536499
-22.999473571777344 53.81748962402344 -104.98066711425781
-15.129843711853027 72.52513885498047 -53.925533294677734
-4.4964799880981445 103.24170684814453 1.770064353942871
-13.472999572753906 74.8157958984375 -40.96860885620117
-13.38566780090332 -32.003021240234375 85.37930297851562
-23.560461044311523 49.93759536743164 -101.73461151123047
-13.710660934448242 61.062862396240234 -31.1097412109375
-13.816607475280762 70.36746215820312 -42.41897964477539
-18.475812911987305 -50.5567741394043 70.75181579589844
-24.299814224243164 46.218170166015625 -108.18355560302734
-23.292537689208984 -57.36958694458008 43.00251388549805
-11.15056324005127 0.8814563155174255 72.41480255126953
-13.18578052520752 62.071746826171875 -22.053483963012695
-32.113433837890625 -83.09249877929688 -10.081854820251465
-1.6850875616073608 104.3202133178711 24.334381103515625
-24.043180465698242 41.83136749267578 -110.79449462890625
-34.843318939208984 -79.37745666503906 -45.400882720947266
-29.818601608276367 -70.2521743774414 -5.260250568389893
-2.6381633281707764 105.87834930419922 17.253162384033203
-7.59967565536499 40.253089904785156 56.588497161865234
-35.073726654052734 -83.37345886230469 -38.89830017089844
-23.583932876586914 49.829437255859375 -106.43339538574219
-34.67166519165039 -83.9003677368164 -36.65837478637695
-28.73891258239746 -75.5936279296875 8.65671443939209
-35.50242614746094 -80.64313507080078 -47.106258392333984
-14.302130699157715 -39.91460418701172 88.29045867919922
-10.064987182617188 63.48651123046875 -20.605430603027344
-15.95217514038086 66.8306655883789 -56.59379959106445
-16.041263580322266 66.56895446777344 -66.88289642333984
-34.218074798583984 -82.3254165649414 -34.34105682373047
-14.795293807983398 70.4000015258789 -57.5158805847168
-28.64645004272461 -67.74486541748047 -3.3180477619171143
-11.510979652404785 74.82928466796875 -34.6157341003418
-10.495756149291992 77.8531494140625 -29.899150848388672
-20.12577247619629 -24.312837600708008 18.590412139892578
-14.734527587890625 69.16072845458984 -55.33668899536133
-21.057575225830078 -25.459882736206055 17.86097526550293
-22.76763343811035 -53.01252365112305 31.310964584350586
-33.01732635498047 -83.38446044921875 -50.33286666870117
-19.19835662841797 -22.79881477355957 17.839643478393555
-11.401711463928223 49.69406509399414 1.0914019346237183
-23.414430618286133 -49.872962951660156 24.8563289642334
-5.42928409576416 55.14590835571289 54.4030647277832
-21.008638381958008 -54.86716842651367 55.34842300415039
-26.017257690429688 -63.74949645996094 14.541709899902344
-22.5686092376709 -30.165945053100586 7.78131103515625
-18.476417541503906 -53.77137756347656 63.73516082763672
-9.540861129760742 84.87027740478516 -23.787405014038086
-15.249850273132324 68.39546203613281 -59.00762176513672
-25.117076873779297 35.25054168701172 -117.78820037841797
-23.193546295166016 52.93561553955078 -114.70838165283203
-5.538857936859131 48.970924377441406 55.203163146972656
-25.369068145751953 -50.94960021972656 -0.12052637338638306
-15.666234970092773 66.19053649902344 -61.872962951660156
-29.89517593383789 -72.4032974243164 -10.489952087402344
-24.772794723510742 48.103878021240234 -119.17688751220703
-33.33951187133789 -79.74877166748047 -31.70297622680664
-15.185749053955078 67.6173095703125 -55.69148254394531
-24.353191375732422 -44.287052154541016 1.0987416505813599
-13.819084167480469 69.81241607666016 -48.163612365722656
-12.304561614990234 68.90126037597656 -36.85303497314453
-12.606846809387207 62.990909576416016 -34.89237594604492
-5.905544281005859 96.13360595703125 -12.035943031311035
-29.483491897583008 -81.52747344970703 0.09733428061008453
-21.593568801879883 53.22108459472656 -101.46068572998047
-23.523910522460938 -40.03565979003906 0.9939103722572327
-14.073060989379883 -48.53703689575195 93.19622039794922
-23.26561737060547 47.88325500488281 -110.03007507324219
-12.973380088806152 -36.9269905090332 89.48480987548828
-14.827713012695312 67.89761352539062 -61.28583526611328
-20.916486740112305 56.12379837036133 -101.61982727050781
-24.464967727661133 48.536380767822266 -120.23644256591797
-10.546090126037598 -14.449560165405273 80.05374908447266
-21.0230770111084 -57.213783264160156 49.67338943481445
-7.614269733428955 32.49651336669922 59.3082160949707
-11.72485637664795 72.85530853271484 -35.48469924926758
-16.495054244995117 64.87513732910156 -67.24613189697266
-23.67647933959961 53.19597244262695 -116.84860229492188
-20.552709579467773 54.829254150390625 -98.55998229980469
-32.21273422241211 -79.03478240966797 -26.608848571777344
-22.78877067565918 -36.253318786621094 1.6096415519714355
-23.961835861206055 -57.02177047729492 16.920991897583008
-22.55379867553711 -57.10175323486328 36.99500274658203
-23.732450485229492 42.5762825012207 -111.8012466430664
-22.93010902404785 44.80019760131836 -110.59280395507812
-35.56644058227539 -91.97441101074219 -38.84858322143555
-34.48516082763672 -90.98648834228516 -29.441450119018555
-13.021978378295898 65.60601806640625 -42.547672271728516
-27.828805923461914 -70.50224304199219 -5.286046504974365
-30.62607192993164 -75.34859466552734 -16.739290237426758
-10.033341407775879 53.204872131347656 0.10277752578258514
-26.807125091552734 -63.21857452392578 -1.9507391452789307
-23.49739646911621 -52.145225524902344 17.83319854736328
-23.420936584472656 49.510215759277344 -119.77862548828125
-7.021473407745361 90.52025604248047 -18.49380111694336
-8.941168785095215 12.218152046203613 67.17272186279297
-28.549680709838867 -80.17291259765625 4.002388954162598
-26.71395492553711 -71.64434051513672 9.835935592651367
-14.707195281982422 -43.17592239379883 89.12014770507812
-10.760723114013672 57.46031188964844 -8.05792236328125
-2.4763596057891846 103.72542572021484 3.018846035003662
-2.3431568145751953 68.08809661865234 55.90142822265625
-9.024245262145996 5.569748878479004 70.9807357788086
-22.362730026245117 48.23555374145508 -112.34042358398438
-1.530651330947876 74.21234893798828 55.06643295288086
-21.848857879638672 -53.45781707763672 30.372920989990234
-32.36903762817383 -82.24397277832031 -41.95122528076172
-10.227680206298828 64.43391418457031 -24.384124755859375
-23.682594299316406 -48.31794357299805 0.7622054815292358
-23.403560638427734 45.022125244140625 -118.84244537353516
-7.378627300262451 27.88869285583496 61.24559020996094
-30.850622177124023 -82.98056030273438 -9.663658142089844
-9.271684646606445 -3.487342596054077 76.3558578491211
-32.262481689453125 -87.76115417480469 -23.777454376220703
-21.750686645507812 -51.31712341308594 23.23412322998047
-12.36133098602295 67.249755859375 -40.591365814208984
-20.025192260742188 -11.23913288116455 13.55432415008545
-34.638187408447266 -94.16084289550781 -55.250858306884766
-8.796553611755371 -17.99687385559082 83.51759338378906
-33.088905334472656 -79.81922912597656 -46.94620132446289
-30.482051849365234 -77.92391204833984 -17.448659896850586
-31.723346710205078 -81.12419128417969 -25.360279083251953
-32.02728271484375 -80.75679016113281 -29.921218872070312
-22.25492286682129 -50.13516616821289 19.577470779418945
-16.316997528076172 -5.351926326751709 6.497866630554199
-16.71251678466797 -54.62670135498047 77.98445892333984
-10.58708667755127 -27.734668731689453 86.44744110107422
-22.67363929748535 50.26716613769531 -115.9137191772461
-0.36472126841545105 81.4828109741211 52.2589225769043
-7.693310260772705 84.99340057373047 -23.07681655883789
-32.4521369934082 -89.38009643554688 -26.648212432861328
-10.651512145996094 63.47285842895508 -27.374488830566406
-28.411663055419922 -73.30803680419922 -8.83543872833252
-8.367459297180176 79.9352798461914 -25.742734909057617
-8.655597686767578 75.86187744140625 -27.590770721435547
-22.386754989624023 -50.08161926269531 21.04343605041504
-19.31474494934082 -104.87564086914062 121.81651306152344
-33.8392219543457 -83.42455291748047 -35.13383483886719
-31.934450149536133 -81.65046691894531 -33.33475875854492
-10.800798416137695 68.75000762939453 -32.864723205566406
-19.130355834960938 -102.92147064208984 119.692138671875
-23.840076446533203 38.829437255859375 -118.37791442871094
-22.32647132873535 50.592533111572266 -115.42709350585938
-32.04827117919922 -83.47679138183594 -50.13865661621094
-18.36078643798828 -99.82976531982422 118.02973175048828
0.40814027190208435 87.43355560302734 48.82352066040039
-25.22410774230957 -74.62920379638672 7.7016921043396
-22.567150115966797 45.387264251708984 -113.32140350341797
-29.022571563720703 -81.78150939941406 -6.229918479919434
-29.83556365966797 -82.6240234375 -10.438407897949219
-17.938207626342773 -98.7949447631836 118.70651245117188
-19.269756317138672 -56.33769607543945 54.90083694458008
-10.716577529907227 64.39878845214844 -31.75920867919922
-23.69145393371582 -54.67247009277344 -0.1986863762140274
-28.422191619873047 -78.47447204589844 -11.159161567687988
-32.405052185058594 -85.38483428955078 -37.55157470703125
-2.19734263420105 63.32849884033203 55.25312805175781
-22.209304809570312 46.030879974365234 -113.1714859008789
-14.708250999450684 -55.479408264160156 89.12455749511719
-23.53470802307129 36.944278717041016 -118.42931365966797
-23.97039031982422 -62.028175354003906 13.541985511779785
-33.68883514404297 -91.0821304321289 -37.32374572753906
-23.276269912719727 45.65976333618164 -119.8442153930664
-2.071946382522583 101.99091339111328 -1.434995412826538
-32.98963165283203 -83.9176254272461 -39.385738372802734
-31.755077362060547 -82.41188049316406 -28.84455680847168
-16.9942626953125 -55.18220901489258 67.26579284667969
-7.821010112762451 63.597564697265625 -17.373477935791016
-6.976875305175781 23.074674606323242 62.988548278808594
-32.4439697265625 -90.56324005126953 -31.819110870361328
-14.802169799804688 18.34225082397461 -0.7603724002838135
