NOTE openvision4
VERSION .7
FIELDS x y z
TYPE F F F
COUNT 1 1 1
WIDTH 866
HEIGHT 1
VIEWPOINT 0 0 0 1 0 0 0
POINTS 866
DATA ascii
79.867919921875 -71.44862365722656 -18.499746322631836
78.6614990234375 88.9886703491211 70.97264862060547
79.71533203125 80.44055938720703 74.04916381835938
79.33283233642578 11.303715705871582 -67.95301818847656
79.3508529663086 -22.79340934753418 110.45356750488281
79.36219787597656 8.060174942016602 -66.0797348022461
79.8210220336914 108.21174621582031 73.25883483886719
79.44587707519531 93.14265441894531 69.11836242675781
79.40072631835938 5.646402835845947 -67.783447265625
79.34515380859375 5.123154640197754 -62.408180236816406
79.66313171386719 45.506187438964844 93.083984375
79.44972229003906 2.9840054512023926 -64.40587615966797
79.38542175292969 -29.579885482788086 110.8330078125
79.78941345214844 100.45194244384766 76.07498931884766
79.49378967285156 11.620750427246094 -66.39624786376953
79.88152313232422 84.49786376953125 83.14733123779297
80.38684844970703 -20.129465103149414 -40.953697204589844
83.43789672851562 62.47685241699219 -75.73021697998047
79.55879974365234 50.847896575927734 94.32308959960938
81.0389633178711 66.33465576171875 -81.3115463256836
79.99201202392578 65.70877075195312 87.82110595703125
79.62181854248047 -60.68352127075195 69.42208099365234
79.90847778320312 9.371219635009766 -70.09135437011719
79.89260864257812 -60.712894439697266 -42.75748825073242
80.88409423828125 -11.959442138671875 -45.34507751464844
79.63151550292969 51.04920196533203 79.06584930419922
80.5086669921875 -21.656381607055664 -15.930533409118652
80.24258422851562 1.2796553373336792 -39.392234802246094
80.3359603881836 -5.539559364318848 45.439659118652344
80.35734558105469 -10.768973350524902 -48.58100509643555
79.85818481445312 -1.300177812576294 -29.356094360351562
80.21238708496094 72.70092010498047 85.6075210571289
79.76329040527344 7.101229190826416 -60.37943649291992
80.11436462402344 1.1821134090423584 -57.64345169067383
80.38968658447266 54.207855224609375 78.54977416992188
82.09625244140625 113.49469757080078 53.7280158996582
80.58110809326172 -21.07358741760254 -14.099388122558594
83.58173370361328 114.17108154296875 54.503055572509766
80.05006408691406 -3.5064029693603516 -26.309980392456055
79.99687194824219 -64.16218566894531 12.484070777893066
81.2504653930664 48.43553924560547 -74.12786102294922
80.22489166259766 -8.093463897705078 -23.35205078125
80.58982849121094 56.34864044189453 -78.77964782714844
79.93171691894531 -19.937959671020508 -9.388416290283203
82.08029174804688 66.4751968383789 -80.87142181396484
79.96856689453125 39.77411651611328 -73.19752502441406
80.00753784179688 -40.51725387573242 -50.434364318847656
80.20149993896484 -8.704200744628906 12.315287590026855
80.11701965332031 8.861087799072266 -63.29295349121094
80.07543182373047 41.64378356933594 -74.8802719116211
80.56036376953125 12.205531120300293 70.40330505371094
80.32506561279297 38.171897888183594 -75.6455078125
80.32125854492188 22.789274215698242 92.45648193359375
81.18219757080078 50.72582244873047 -78.87289428710938
82.07669067382812 113.17431640625 70.13787078857422
80.35194396972656 5.103440761566162 -69.49246215820312
80.1317138671875 -61.66293716430664 76.40081787109375
80.15104675292969 -15.869043350219727 -3.5383358001708984
80.28563690185547 4.96059513092041 -56.62775802612305
80.60077667236328 58.230003356933594 -67.57159423828125
80.82920837402344 49.582008361816406 -77.19414520263672
81.11819458007812 51.3255615234375 -69.56576538085938
80.74867248535156 100.87610626220703 78.60404205322266
80.929443359375 43.140567779541016 93.04889678955078
80.21454620361328 1.710636019706726 -65.83818054199219
81.10028076171875 101.23417663574219 77.11363983154297
80.67352294921875 16.710248947143555 94.32392883300781
81.00686645507812 7.1989426612854 -56.24983596801758
81.8335189819336 -3.7484710216522217 -60.50434875488281
80.31893920898438 -11.96871280670166 3.286531686782837
83.03717803955078 -72.892333984375 -4.456668376922607
80.74778747558594 -0.45174121856689453 -61.60110092163086
80.83077239990234 82.775634765625 73.02098083496094
80.76343536376953 -67.41802978515625 2.3386168479919434
80.496826171875 100.13822937011719 63.46470642089844
80.88129425048828 -8.170888900756836 108.66158294677734
81.05319213867188 87.5965805053711 70.23404693603516
81.20726013183594 21.282886505126953 70.32791137695312
80.60865783691406 26.095792770385742 71.1797103881836
80.96619415283203 40.620601654052734 -77.98957061767578
81.3609848022461 17.73891258239746 70.1379165649414
81.18634796142578 -68.6655502319336 -40.011837005615234
81.16004180908203 -30.373065948486328 -48.06570053100586
80.68004608154297 14.946027755737305 -68.97061157226562
81.27664184570312 41.54433059692383 -69.87450408935547
80.7041015625 14.986481666564941 -66.74642944335938
80.87594604492188 86.15397644042969 82.51717376708984
80.90237426757812 -64.70829010009766 -42.25670623779297
82.42906188964844 -58.60702896118164 48.18071365356445
82.65702056884766 -23.23245620727539 -43.2703971862793
81.2537612915039 42.71792984008789 -70.84709167480469
80.90101623535156 50.20778274536133 94.51025390625
81.21182250976562 7.482414722442627 100.97830200195312
81.27600860595703 66.79295349121094 86.87981414794922
81.05209350585938 61.01823043823242 89.69169616699219
83.52925872802734 -76.13787841796875 -26.439889907836914
80.81287384033203 93.2375259399414 68.53019714355469
80.53968811035156 5.908924102783203 67.47144317626953
81.5711441040039 111.1561050415039 72.31173706054688
81.26502990722656 47.2852668762207 -76.30342864990234
80.80381774902344 -60.17060089111328 84.38978576660156
80.83281707763672 100.51219177246094 74.0715103149414
81.47834777832031 111.96427917480469 71.22020721435547
81.07512664794922 -3.524625301361084 61.97648620605469
80.93190002441406 53.431121826171875 93.9193344116211
81.34600830078125 75.49455261230469 84.090576171875
80.90931701660156 -58.93648147583008 64.24128723144531
80.49027252197266 47.34122848510742 78.25978088378906
81.57102966308594 101.97566986083984 72.6990737915039
81.30516815185547 44.89933395385742 -75.7957992553711
81.66281127929688 50.80363082885742 79.21057891845703
80.63105773925781 97.72367858886719 79.1225357055664
81.62635803222656 37.38196563720703 -71.70655822753906
82.15361022949219 -52.71323776245117 -49.17481231689453
81.55535888671875 53.43328857421875 -66.89793395996094
81.71632385253906 66.82027435302734 77.6114273071289
83.66600799560547 3.552009344100952 67.84992218017578
82.34402465820312 -58.29397201538086 54.335044860839844
81.41929626464844 -0.19251269102096558 105.52236938476562
81.54353332519531 35.179508209228516 -73.37674713134766
82.52251434326172 104.908935546875 60.08582305908203
81.88291931152344 6.143906116485596 -48.35062026977539
81.13742065429688 -71.92697143554688 -10.053325653076172
81.83818054199219 -33.29243087768555 -51.233707427978516
81.37478637695312 43.63492965698242 -74.04607391357422
81.74423217773438 45.29182434082031 -78.23978424072266
81.25411987304688 -57.74314880371094 91.10685729980469
81.25137329101562 35.6376953125 92.28339385986328
81.56312561035156 -60.95951461791992 32.41155242919922
82.0892562866211 -59.933555603027344 -45.84769058227539
81.26309967041016 53.9969596862793 -67.48978424072266
81.34862518310547 18.329376220703125 -68.45809936523438
82.41688537597656 39.05474090576172 -68.8718490600586
81.36351776123047 -22.45290184020996 111.9060287475586
81.67874145507812 37.173133850097656 -77.72090148925781
82.67132568359375 -59.30242156982422 60.98607635498047
82.1507568359375 48.544891357421875 -71.97624969482422
82.477294921875 0.689888596534729 -68.03627014160156
81.81343841552734 22.512508392333984 92.0864486694336
81.99928283691406 -73.67713928222656 -21.8149471282959
81.96136474609375 -48.83837890625 104.23390197753906
81.53662109375 -37.03662872314453 109.48980712890625
82.1448974609375 -6.964390754699707 59.710792541503906
82.65924072265625 83.1364974975586 73.39986419677734
82.21965026855469 55.42646026611328 -80.37738800048828
81.60711669921875 -17.126893997192383 -18.762298583984375
81.86951446533203 18.37263298034668 -71.52542114257812
81.44732666015625 1.3573853969573975 -32.02933883666992
81.80477905273438 33.977298736572266 -74.52737426757812
81.37187194824219 59.03185272216797 -68.86894989013672
81.69654846191406 0.2618640661239624 -28.51163101196289
81.94110870361328 -55.294620513916016 96.96752166748047
82.52207946777344 91.90503692626953 79.43391418457031
82.00236511230469 53.95296859741211 92.9189453125
81.84675598144531 14.736783981323242 71.67996978759766
82.97986602783203 55.10653305053711 -66.85869598388672
82.9027328491211 16.393245697021484 -72.5096435546875
83.43096923828125 4.842260837554932 -71.7540512084961
82.12667083740234 -12.8707914352417 110.72489166259766
82.29327392578125 113.0157699584961 61.29673767089844
81.77141571044922 -29.46649932861328 112.19940948486328
81.91313171386719 99.89879608154297 78.06754302978516
82.21662139892578 52.44716262817383 -80.18941497802734
81.74060821533203 2.933870792388916 -39.94533157348633
81.8501205444336 -38.198829650878906 -52.24832534790039
82.03950500488281 32.34483337402344 -70.28047943115234
82.07442474365234 -2.7269508838653564 -24.66647720336914
82.55696105957031 -74.25533294677734 -39.00458526611328
81.89871978759766 -63.27180480957031 24.768211364746094
82.28627014160156 -73.83307647705078 -29.741065979003906
82.62187194824219 100.20670318603516 73.97410583496094
82.2877197265625 60.864471435546875 88.04483032226562
81.9271240234375 100.5949478149414 63.50908279418945
82.13504028320312 -65.99568176269531 -44.797386169433594
82.13245391845703 93.39181518554688 68.61115264892578
81.92073059082031 63.41709899902344 78.14930725097656
82.44261169433594 -7.955994129180908 -22.024930953979492
83.26002502441406 -76.57975769042969 -36.0766487121582
82.63525390625 32.65827560424805 -75.66523742675781
82.12689208984375 18.487159729003906 -66.0876235961914
83.15088653564453 103.2351303100586 61.33200454711914
83.78358459472656 -75.4797134399414 -12.490013122558594
80.48150634765625 10.712417602539062 -63.88332748413086
82.62627410888672 46.13338088989258 -72.61761474609375
83.7589111328125 8.871139526367188 -54.540008544921875
83.56874084472656 10.1354398727417 99.8808364868164
82.17034149169922 50.53892517089844 94.18102264404297
82.52745056152344 44.50981903076172 91.74235534667969
82.37000274658203 35.230873107910156 91.17223358154297
82.27470397949219 10.20478343963623 -59.52875900268555
81.8240966796875 46.50364685058594 78.3387680053711
81.9874496459961 -3.670635461807251 28.121274948120117
82.9094467163086 -17.910688400268555 -42.8494758605957
84.81896209716797 113.54060363769531 55.861568450927734
83.27996826171875 -56.83838653564453 -48.91668701171875
83.00657653808594 50.25713348388672 93.16874694824219
83.18285369873047 87.13935852050781 71.12347412109375
82.48176574707031 -65.8066177368164 17.21848487854004
82.81824493408203 104.73973083496094 72.49504852294922
82.37779998779297 -3.2869491577148438 33.39324951171875
82.42831420898438 -60.01905059814453 39.87283706665039
83.27291870117188 74.34955596923828 81.15403747558594
82.65275573730469 18.712318420410156 93.16123962402344
83.01968383789062 42.98202896118164 -69.8388900756836
82.82923889160156 -20.59494972229004 -42.58087158203125
82.66719055175781 43.482933044433594 89.9465560913086
83.03605651855469 29.567359924316406 -67.92526245117188
82.72828674316406 26.273914337158203 72.22186279296875
83.09974670410156 57.93198776245117 78.73020935058594
83.26117706298828 66.11023712158203 83.57038879394531
82.90692901611328 7.52056884765625 69.59471893310547
83.18160247802734 108.40581512451172 73.51227569580078
84.49148559570312 -14.306529998779297 -9.17853832244873
82.5857162475586 11.595781326293945 71.1985855102539
82.55535888671875 40.15391159057617 -79.29964447021484
84.27700805664062 41.49436950683594 -67.74401092529297
82.86703491210938 -5.54461669921875 15.683815956115723
84.04253387451172 -13.703508377075195 -44.25581359863281
83.13436889648438 19.551687240600586 -64.83522033691406
82.95833587646484 25.190807342529297 91.1672592163086
82.84590148925781 35.11109161376953 89.01488494873047
83.41751861572266 56.57544708251953 -80.03772735595703
83.196044921875 52.05550765991211 -67.4741439819336
83.43315887451172 62.24352264404297 -74.43701934814453
82.95921325683594 -42.65675735473633 -52.49861526489258
82.95718383789062 68.84465789794922 78.04517364501953
83.79107666015625 96.60813903808594 77.37249755859375
84.87680053710938 63.6597785949707 -77.51317596435547
83.74820709228516 44.533203125 -79.71756744384766
83.05181121826172 35.17311096191406 -68.28233337402344
83.15362548828125 -3.4456002712249756 39.157135009765625
83.38848114013672 50.9947509765625 -69.16197204589844
82.60449981689453 44.180381774902344 -72.17481994628906
83.43688201904297 2.328284502029419 105.02792358398438
83.1387710571289 63.42252731323242 79.01148986816406
83.20127868652344 11.169227600097656 -72.75830841064453
83.58226013183594 17.028858184814453 72.02192687988281
83.13888549804688 53.704933166503906 90.53435516357422
83.44832611083984 -8.20970344543457 5.424386978149414
83.35540771484375 -71.00216674804688 2.2136125564575195
83.83609008789062 106.02770233154297 60.516334533691406
85.4034652709961 -45.35114669799805 107.56182098388672
83.48085021972656 12.012080192565918 -61.220638275146484
84.13180541992188 -27.424596786499023 -48.686866760253906
83.24578857421875 -68.7234878540039 9.271757125854492
84.57545471191406 98.56501770019531 75.17467498779297
84.03309631347656 102.14945983886719 71.01184844970703
84.39356994628906 -62.21335983276367 -48.5521354675293
83.06669616699219 87.87345886230469 79.01420593261719
83.61016845703125 26.524538040161133 89.95448303222656
84.34573364257812 -6.2770466804504395 109.66534423828125
81.4623031616211 1.2726942300796509 65.33810424804688
84.744384765625 -71.68687438964844 -49.780948638916016
82.81494903564453 -7.838437080383301 -56.044654846191406
84.25418090820312 61.33085632324219 82.78791809082031
83.8241958618164 -52.54945373535156 101.83419799804688
83.37193298339844 94.51972961425781 68.59468078613281
83.91621398925781 50.201778411865234 90.05384063720703
83.5183334350586 102.36119842529297 63.8610725402832
84.09119415283203 4.220635890960693 -39.5213737487793
83.28669738769531 49.20817565917969 80.15241241455078
83.62369537353516 67.19995880126953 80.30207061767578
85.7170181274414 66.62263488769531 -81.70915222167969
83.63651275634766 -4.292490482330322 44.28080368041992
83.43193054199219 2.4141721725463867 -31.121889114379883
84.07589721679688 49.02560806274414 90.21047973632812
83.99303436279297 92.28919219970703 69.90477752685547
83.49406433105469 38.679378509521484 87.98535919189453
87.17550659179688 66.81139373779297 -80.75340270996094
83.52289581298828 5.703588485717773 -43.94647216796875
84.02298736572266 44.3166389465332 -68.97667694091797
84.35613250732422 25.100521087646484 88.59107971191406
83.76849365234375 -22.27207374572754 112.98947143554688
83.58609008789062 45.01820755004883 88.74858856201172
83.62308502197266 16.078269958496094 -62.7543830871582
84.76142883300781 113.40959167480469 71.09375
83.20404815673828 -11.425151824951172 -50.2003059387207
85.16165161132812 58.12769317626953 -68.20083618164062
83.702392578125 1.1732263565063477 -27.225170135498047
84.08223724365234 86.8873519897461 74.26593780517578
84.5100326538086 32.40549850463867 -76.93590545654297
83.76028442382812 82.59143829345703 76.05262756347656
85.17878723144531 53.888206481933594 -80.9576187133789
85.2845687866211 56.73857116699219 -80.13768005371094
83.85254669189453 90.90693664550781 76.95911407470703
83.75959014892578 84.60480499267578 77.44349670410156
84.28285217285156 19.44944953918457 72.18965148925781
84.41897583007812 105.6648941040039 71.85975646972656
83.72978210449219 110.96129608154297 73.50956726074219
84.23497009277344 36.38444900512695 -67.56533813476562
83.92314147949219 38.891143798828125 85.0762710571289
83.99213409423828 63.42234420776367 80.49181365966797
83.89768981933594 18.850719451904297 92.53495025634766
84.29405975341797 52.69064712524414 89.10872650146484
83.83031463623047 -12.223489761352539 -45.94865798950195
84.71868133544922 89.1664810180664 72.05491638183594
84.185791015625 -78.43600463867188 -44.07857131958008
84.17862701416016 -75.18558502197266 -47.180301666259766
83.72126007080078 38.30691909790039 -79.31123352050781
84.02576446533203 -5.618770122528076 49.77517318725586
84.02934265136719 49.876014709472656 -80.06288146972656
84.48054504394531 59.09080123901367 79.3453140258789
84.62040710449219 -0.6628953814506531 -24.68224334716797
84.34123229980469 98.7478256225586 73.03585052490234
84.07472229003906 45.52585983276367 86.66981506347656
84.35306549072266 -13.79374885559082 111.96173858642578
84.0170669555664 32.30167007446289 87.66558074951172
85.77168273925781 -82.01372528076172 -31.92946434020996
83.99129486083984 95.9902114868164 68.77225494384766
84.6740951538086 23.944252014160156 72.96459197998047
84.45646667480469 34.213497161865234 83.40398406982422
84.90936279296875 -65.12683868408203 -49.198055267333984
84.46614074707031 102.8158187866211 65.7464828491211
84.05201721191406 -36.46535110473633 -53.37216567993164
84.72224426269531 -72.71077728271484 2.2292301654815674
84.09362030029297 14.835397720336914 72.99592590332031
84.58123779296875 19.565813064575195 -73.80878448486328
84.58853912353516 -36.528167724609375 110.8188247680664
85.61026763916016 105.7961196899414 61.75453567504883
85.09864044189453 54.41896057128906 -66.48224639892578
84.52861022949219 13.263623237609863 -61.412498474121094
84.17862701416016 -29.57174301147461 113.03691864013672
84.3591537475586 -61.376914978027344 43.27333068847656
84.7468490600586 48.4160270690918 -71.18817138671875
84.47914123535156 100.64556884765625 69.19708251953125
84.98031616210938 46.20686340332031 -71.91043090820312
84.8731918334961 -0.08860863745212555 -68.11905670166016
84.80744171142578 56.30729675292969 -67.61981201171875
85.67327117919922 -84.00106048583984 -40.17256546020508
86.81444549560547 12.891393661499023 74.62555694580078
84.3463363647461 48.82089614868164 81.25762176513672
85.3809814453125 59.02186584472656 82.1585464477539
84.96119689941406 43.70819854736328 -70.56414031982422
85.08130645751953 49.241783142089844 85.02742767333984
85.12554168701172 10.957598686218262 -59.012786865234375
85.27639770507812 25.789100646972656 87.20814514160156
85.35357666015625 20.71026039123535 89.78108978271484
85.10340881347656 -15.982062339782715 -17.622236251831055
85.08522033691406 47.20365905761719 83.56646728515625
84.42412567138672 -15.036823272705078 -18.788915634155273
85.19051361083984 -25.40712547302246 -47.682586669921875
87.97929382324219 59.466636657714844 -69.63463592529297
85.88301849365234 -15.500611305236816 -15.926233291625977
85.1460189819336 -7.024981498718262 58.398258209228516
84.7939453125 -19.262075424194336 -43.938446044921875
84.63511657714844 -60.94399642944336 58.4726448059082
84.64640045166016 -49.18196487426758 -52.01781463623047
85.26844024658203 -7.394453525543213 -56.770381927490234
84.66091918945312 -4.434813022613525 -22.472824096679688
86.10049438476562 -57.87866973876953 -51.56710433959961
84.66342163085938 13.867361068725586 96.12173461914062
85.07269287109375 50.967262268066406 83.16389465332031
86.21507263183594 113.48163604736328 55.92876052856445
85.30037689208984 108.46784973144531 73.24847412109375
85.3099365234375 -61.113502502441406 52.28406524658203
85.65618896484375 5.752750873565674 -42.40934753417969
85.27471923828125 54.06486129760742 81.26406860351562
85.30708312988281 18.650909423828125 -62.94681167602539
84.8956298828125 113.54718017578125 68.79383087158203
85.18594360351562 40.74310302734375 -68.21293640136719
84.89517974853516 47.760169982910156 82.02835083007812
85.5920639038086 3.770681619644165 -35.85377883911133
85.13809204101562 39.94350814819336 83.51018524169922
85.56362915039062 28.677927017211914 81.5205307006836
85.88911437988281 27.358963012695312 75.43595123291016
85.42071533203125 0.7136754393577576 106.3482666015625
85.87652587890625 9.04045295715332 -73.08709716796875
85.43762969970703 95.16056823730469 72.22837829589844
85.82252502441406 3.356367588043213 -31.54701042175293
86.5919418334961 -88.0262680053711 -49.195823669433594
85.44527435302734 104.35208129882812 67.72962951660156
86.43582153320312 -85.63433837890625 -37.19451141357422
85.79854583740234 53.216270446777344 82.9866943359375
85.71337890625 94.95089721679688 75.1930923461914
85.24974060058594 114.5144271850586 69.37994384765625
86.66413879394531 -78.82081604003906 -13.665905952453613
85.56047058105469 -43.34294891357422 -53.68609619140625
85.14701843261719 -63.29853439331055 35.32045364379883
85.4347152709961 26.867473602294922 85.33479309082031
85.21041870117188 59.601829528808594 80.47288513183594
85.01420593261719 110.61444091796875 73.6864013671875
85.93043518066406 92.01188659667969 73.61640930175781
85.65745544433594 35.5052604675293 -67.94428253173828
85.95014953613281 2.2876691818237305 -27.79637908935547
86.09615325927734 -10.65356731414795 -50.14912414550781
85.37551879882812 -30.64552116394043 -52.33024978637695
85.91779327392578 106.68011474609375 62.64278793334961
86.26786804199219 105.17120361328125 64.79930114746094
85.46430969238281 49.272518157958984 -79.7306137084961
85.39750671386719 39.75238037109375 -79.68843841552734
85.92093658447266 34.71397399902344 78.82968139648438
86.52530670166016 13.07510757446289 -61.40056610107422
85.66049194335938 25.202117919921875 -65.23153686523438
86.10443878173828 -6.557958126068115 62.145111083984375
86.15641784667969 8.940789222717285 -54.472991943359375
85.77235412597656 -12.09038257598877 -45.38895034790039
86.09249114990234 113.84110260009766 70.42127227783203
85.79173278808594 7.7796478271484375 101.40930938720703
85.85847473144531 -68.91287994384766 14.277737617492676
86.19358825683594 4.937376499176025 -72.0768814086914
86.18768310546875 -1.8850789070129395 -64.10250854492188
85.6449203491211 -84.45114135742188 -43.53192138671875
85.65184020996094 1.1723381280899048 67.17228698730469
86.14209747314453 -15.317270278930664 112.55552673339844
85.69781494140625 -64.0680923461914 71.44878387451172
86.30847930908203 -72.01048278808594 7.284060478210449
86.5284194946289 106.49150848388672 68.4553451538086
85.72581481933594 -63.943397521972656 77.68156433105469
86.25650787353516 -24.546789169311523 -47.89668273925781
87.57300567626953 50.99647903442383 -69.38109588623047
86.91993713378906 16.550607681274414 75.9677963256836
86.85376739501953 4.419454097747803 -39.70063018798828
86.64103698730469 113.35589599609375 65.89541625976562
85.82161712646484 -64.7872085571289 30.590791702270508
85.76457977294922 18.9902286529541 -73.58399963378906
86.76956939697266 -76.39942932128906 -2.2819483280181885
86.53511047363281 33.57297134399414 -76.86978912353516
86.80577087402344 -17.71688461303711 -44.963199615478516
86.13407897949219 32.540348052978516 80.31137084960938
83.89795684814453 -12.30574893951416 -4.156515121459961
88.41576385498047 65.5801010131836 -79.90008544921875
88.51912689208984 -82.10337829589844 -17.330093383789062
87.05085754394531 55.778663635253906 -66.51656341552734
86.23875427246094 26.139095306396484 -67.6695556640625
86.3009033203125 34.41876220703125 -70.0819320678711
86.43132019042969 38.92477035522461 -69.24026489257812
86.52922058105469 -14.160365104675293 -43.44758987426758
87.46633911132812 -6.358829021453857 2.921922206878662
86.4536361694336 -72.08279418945312 -53.80397033691406
87.81468963623047 -83.82463836669922 -27.486656188964844
86.31407928466797 109.85887145996094 70.82335662841797
86.14891815185547 -62.0252571105957 85.31326293945312
86.38998413085938 12.9317045211792 96.39933013916016
86.87863159179688 36.59105682373047 -78.16260528564453
86.95316314697266 19.650178909301758 75.30668640136719
86.72000885009766 16.927574157714844 -63.8359260559082
86.71786499023438 16.144018173217773 91.63280487060547
87.20118713378906 18.4051456451416 87.79293823242188
86.23724365234375 -15.598043441772461 -43.57847595214844
86.32315063476562 -110.12653350830078 -108.62763214111328
85.5721435546875 44.55412673950195 -71.50820922851562
87.00836944580078 42.37380599975586 -69.72056579589844
86.64444732666016 24.572460174560547 81.11091613769531
86.45441436767578 -108.24231719970703 -106.4371337890625
87.03187561035156 113.55883026123047 59.685604095458984
86.55882263183594 109.30448913574219 71.13311767578125
88.9257583618164 59.167659759521484 -69.62332153320312
86.95327758789062 -106.99661254882812 -103.1033935546875
86.43661499023438 -59.3098258972168 91.66576385498047
88.29869079589844 0.33844172954559326 -66.6092300415039
86.83065032958984 107.76547241210938 65.73457336425781
87.0335464477539 15.260830879211426 -72.5586166381836
86.7955322265625 19.598785400390625 -73.01435852050781
87.15257263183594 -107.8177261352539 -102.10663604736328
86.61196899414062 -48.803585052490234 -53.1924934387207
87.22172546386719 23.89848518371582 76.70922088623047
87.83873748779297 5.995199680328369 -45.852882385253906
87.6802978515625 19.7329158782959 -68.66290283203125
87.51438903808594 46.96354675292969 -72.98043060302734
86.57811737060547 -62.97666931152344 66.85213470458984
87.07672882080078 107.51110076904297 66.39752960205078
87.37108612060547 -83.24443817138672 -55.653804779052734
87.6026382446289 113.75852966308594 57.8734016418457
87.14725494384766 -6.8217034339904785 -54.69816970825195
87.02654266357422 47.45315933227539 -78.78400421142578
86.78250885009766 114.26752471923828 66.65387725830078
87.25371551513672 -10.795133590698242 111.4051513671875
86.9263916015625 48.701202392578125 -71.40137481689453
86.818115234375 37.991397857666016 -70.9583511352539
87.38520050048828 -61.40544128417969 -53.168373107910156
88.66694641113281 9.418548583984375 74.65538024902344
86.70922088623047 -66.08342742919922 25.7014102935791
87.59839630126953 41.8148193359375 -78.73908233642578
86.39627075195312 -1.7021452188491821 27.285030364990234
86.5870132446289 -57.133941650390625 96.1108169555664
87.00901794433594 -3.284471035003662 14.672435760498047
87.49694061279297 52.74258041381836 -79.54779815673828
86.99803924560547 -34.7235107421875 -53.61391830444336
87.55863952636719 -112.80245971679688 -114.87384796142578
87.83998107910156 -42.199066162109375 109.39321899414062
89.24288940429688 58.3513298034668 -67.42082214355469
87.60053253173828 -109.91619110107422 -102.06474304199219
87.49810028076172 24.865711212158203 -70.14566040039062
87.80816650390625 -29.332223892211914 -51.74689865112305
87.049072265625 -1.4956586360931396 33.55326843261719
87.74668884277344 111.36748504638672 65.83219146728516
87.58850860595703 114.15457916259766 66.44536590576172
88.55899810791016 -11.416433334350586 -43.34272766113281
87.23106384277344 25.616010665893555 78.94364929199219
87.0619125366211 -3.6955060958862305 -22.618431091308594
88.48291778564453 65.91043853759766 -80.7727279663086
87.9570083618164 51.99430465698242 -67.6272201538086
87.0919189453125 0.22274303436279297 -25.48334312438965
88.30206298828125 10.655255317687988 -71.97686004638672
87.38623046875 -4.8042168617248535 7.56974458694458
88.18058013916016 -93.34869384765625 -47.96405029296875
87.54883575439453 5.378047466278076 71.37313842773438
87.62333679199219 -1.6017050743103027 -61.66007614135742
87.6816177368164 44.230228424072266 -73.44001770019531
87.5137710571289 -56.01790237426758 -53.02760696411133
87.85627746582031 2.2801144123077393 104.94276428222656
88.22233581542969 -111.00926971435547 -102.27891540527344
88.58484649658203 11.912576675415039 -63.296104431152344
87.29798889160156 -2.1630704402923584 38.95378494262695
87.653076171875 27.42323112487793 -73.02745819091797
87.54337310791016 -90.62245178222656 -99.77019500732422
87.900634765625 16.331899642944336 -70.45634460449219
87.66203308105469 -3.2920212745666504 -57.939544677734375
87.57231903076172 11.773716926574707 -61.06936264038086
87.94973754882812 19.013273239135742 86.83848571777344
88.01929473876953 -111.83168029785156 -111.87504577636719
88.07850646972656 -24.98792839050293 -50.154014587402344
88.20674896240234 113.23672485351562 61.152286529541016
87.66227722167969 -62.763999938964844 63.40692901611328
87.98859405517578 56.561641693115234 -78.93868255615234
87.56348419189453 34.92847442626953 -72.81124114990234
87.94400787353516 34.330928802490234 -74.88565826416016
88.00636291503906 -108.89293670654297 -104.51029205322266
88.13104248046875 19.55328369140625 78.24885559082031
87.88212585449219 -74.00259399414062 -57.247318267822266
87.61064910888672 -93.34642791748047 -99.01932525634766
87.89086151123047 -16.17001724243164 -44.28295135498047
89.53143310546875 -12.571683883666992 -19.6882266998291
88.7109603881836 -5.9723124504089355 109.51134490966797
88.27825927734375 2.8946316242218018 -36.77265930175781
88.80247497558594 17.949277877807617 84.69355010986328
87.7293701171875 -91.4382553100586 -101.00713348388672
88.4301986694336 55.462886810302734 -79.26931762695312
88.34166717529297 -3.2510669231414795 43.205955505371094
88.08419799804688 7.937076568603516 -56.28676223754883
88.59102630615234 -89.38543701171875 -101.65803527832031
88.57264709472656 -70.52054595947266 14.871292114257812
88.05332946777344 -22.170682907104492 114.15023040771484
88.24301147460938 -92.57392120361328 -95.12739562988281
87.8148193359375 -50.80609893798828 105.1640625
88.1181869506836 45.22581481933594 -76.32388305664062
88.60225677490234 -92.86065673828125 -55.1612663269043
87.83136749267578 -91.90496063232422 -84.06092071533203
88.18907928466797 -92.60370635986328 -101.67346954345703
88.02416229248047 7.010495662689209 100.99589538574219
87.68733215332031 -111.53450012207031 -109.57891082763672
87.96965026855469 -85.21631622314453 -86.85977172851562
88.32926177978516 -13.494449615478516 -42.59617233276367
88.37384796142578 -94.05614471435547 -101.86222076416016
89.58634948730469 -79.61485290527344 -1.5620750188827515
87.91131591796875 -91.719970703125 -97.36068725585938
89.42330169677734 -111.67045593261719 -102.65345001220703
90.48291778564453 -52.26884460449219 104.57511901855469
87.91793823242188 -74.61204528808594 4.714588165283203
88.04113006591797 -90.03924560546875 -80.42505645751953
88.62993621826172 -81.84012603759766 -60.94786834716797
88.1827163696289 -95.28269958496094 -97.11066436767578
87.83502197265625 -5.485359191894531 50.38582229614258
88.14933776855469 37.63154602050781 -77.2696304321289
88.67904663085938 38.030418395996094 -74.08485412597656
88.63131713867188 -92.96875762939453 -44.836219787597656
88.59488677978516 39.919551849365234 -72.33397674560547
88.62702941894531 2.365992307662964 -29.548486709594727
88.1917724609375 -89.78306579589844 -97.3541488647461
88.5964126586914 49.9390754699707 -72.06040954589844
89.24746704101562 17.015886306762695 81.32156372070312
88.27780151367188 16.134767532348633 -67.86566162109375
88.49446105957031 49.6427116394043 -75.94613647460938
88.232666015625 -11.351873397827148 -10.951025009155273
88.98422241210938 -14.86782169342041 113.32410430908203
88.31967163085938 4.650118350982666 -70.79792022705078
89.20454406738281 15.293115615844727 87.76876831054688
88.90680694580078 -66.66915130615234 -58.237483978271484
89.31124877929688 -111.61013793945312 -111.31133270263672
90.46200561523438 -40.98741912841797 110.41898345947266
88.92491149902344 41.59593963623047 -76.18069458007812
88.90690612792969 -111.0039291381836 -107.42143249511719
87.7408676147461 10.114089012145996 -60.3787727355957
89.19696044921875 -97.07194519042969 -94.8098373413086
88.45148468017578 54.39534378051758 -66.70671844482422
88.9583511352539 -77.75257873535156 -88.56452178955078
88.39584350585938 -60.226932525634766 -54.90413284301758
88.57491302490234 -29.89327049255371 113.99856567382812
88.45897674560547 -63.56710433959961 55.99460220336914
88.38041687011719 -68.15960693359375 21.213329315185547
88.44015502929688 -82.54939270019531 -80.91326904296875
89.55590057373047 -2.071244955062866 107.17436981201172
88.3309326171875 -63.9063606262207 47.217193603515625
89.4599838256836 -32.986812591552734 -52.881187438964844
88.5131607055664 -96.98416900634766 -86.98497772216797
91.02225494384766 -6.673967361450195 58.62413787841797
88.31959533691406 42.196380615234375 -71.41044616699219
89.36101531982422 -111.04598236083984 -112.40493774414062
89.76945495605469 54.40427017211914 -77.56686401367188
88.41215515136719 -89.26477813720703 -59.420108795166016
88.46441650390625 -0.009354188106954098 -58.64348602294922
88.30327606201172 53.705528259277344 -66.26313018798828
88.99232482910156 5.1647796630859375 -48.80522918701172
88.71497344970703 -92.38623046875 -97.51931762695312
89.19568634033203 10.794994354248047 95.31112670898438
89.17109680175781 -96.63397216796875 -60.94702911376953
88.82978057861328 38.15272903442383 -75.7889404296875
88.88152313232422 3.285846710205078 -41.07003402709961
89.3785629272461 -1.5019203424453735 67.9225082397461
88.4461669921875 -89.31228637695312 -95.05107879638672
89.192138671875 -100.81896209716797 -95.0484390258789
89.197021484375 -91.45374298095703 -100.98351287841797
88.72978210449219 2.923938274383545 -68.42283630371094
88.75935363769531 59.66207504272461 -68.19694519042969
90.13480377197266 -90.61430358886719 -101.75072479248047
88.69681549072266 -41.585140228271484 -53.961849212646484
88.81703186035156 2.933026075363159 -57.017189025878906
88.97393035888672 14.607901573181152 77.9427719116211
92.63972473144531 -49.038265228271484 108.3587646484375
88.58768463134766 6.106022834777832 -56.67105484008789
88.92330169677734 -96.67658233642578 -98.62496948242188
89.06769561767578 -77.27124786376953 -82.66790771484375
89.7893295288086 -89.55646514892578 -102.40670776367188
89.34773254394531 -11.415609359741211 -41.22834014892578
88.70348358154297 -96.32815551757812 -78.51934051513672
89.15319061279297 -89.60747528076172 -75.67478942871094
90.06881713867188 -84.66402435302734 -97.86396789550781
88.99990844726562 -72.95083618164062 -59.94567108154297
89.46954345703125 0.2667008340358734 -26.588781356811523
89.40226745605469 -96.32620239257812 -59.152801513671875
90.22738647460938 -105.83606719970703 -99.07569885253906
88.84832000732422 -64.8366470336914 40.7406005859375
89.46319580078125 -101.85594940185547 -89.24258422851562
89.83311462402344 -87.58939361572266 -99.09050750732422
89.77403259277344 -90.81422424316406 -103.35064697265625
88.94451904296875 -54.103302001953125 -54.123348236083984
89.66030883789062 -89.64678192138672 -97.66619110107422
90.72528839111328 -82.19056701660156 -6.7729644775390625
89.46802520751953 -4.365701198577881 -49.677947998046875
89.62039947509766 -90.16703033447266 -33.72659683227539
89.63226318359375 -10.6546630859375 111.84701538085938
91.83439636230469 -6.589562892913818 65.00856018066406
89.7098388671875 6.166125774383545 -69.70501708984375
89.2295150756836 -49.19429016113281 -54.014793395996094
88.87114715576172 9.407674789428711 -63.05269241333008
89.70266723632812 -80.0391845703125 -94.98756408691406
91.16393280029297 -3.3196425437927246 67.63280487060547
89.80642700195312 56.31760787963867 -76.96167755126953
90.39192962646484 65.07112121582031 -79.33882904052734
88.75618743896484 -3.364518880844116 -23.083101272583008
89.14900207519531 12.000968933105469 -70.11048889160156
89.38713836669922 -78.46676635742188 -78.61666870117188
89.0135269165039 -7.7680864334106445 -2.8895137310028076
89.63917541503906 -95.78153228759766 -66.95872497558594
89.26094055175781 12.595773696899414 -67.55899810791016
89.94694519042969 -101.36544799804688 -96.75946044921875
89.94196319580078 -1.647997260093689 -47.67283248901367
89.32533264160156 -28.521814346313477 -52.737857818603516
89.81389617919922 52.399757385253906 -70.01142883300781
89.3219223022461 7.421149253845215 -61.519630432128906
89.55094909667969 -76.13658905029297 -88.27226257324219
89.57471466064453 -107.13880920410156 -97.9101791381836
90.17256927490234 60.40019226074219 -71.62613677978516
89.49880981445312 1.7105464935302734 -64.2964096069336
89.76943969726562 4.321829319000244 -62.097068786621094
89.45159912109375 3.0770442485809326 -66.48207092285156
89.39291381835938 -65.68941497802734 36.06878662109375
89.79371643066406 -95.2261962890625 -75.75767517089844
92.92153930664062 -44.51332092285156 110.34294128417969
89.70411682128906 -75.09172058105469 -84.81562805175781
89.61927795410156 5.2669358253479 -64.16204071044922
90.05397033691406 -97.68505859375 -98.79332733154297
89.60749816894531 54.652706146240234 -68.98320770263672
90.0667724609375 4.649412631988525 101.56349182128906
90.91282653808594 0.739885687828064 -30.257972717285156
89.9850845336914 -103.39619445800781 -93.43504333496094
90.50724792480469 -91.84503936767578 -104.1423110961914
89.63521575927734 -80.65274047851562 -63.48946762084961
90.04396057128906 53.967750549316406 -69.04035186767578
92.00345611572266 -38.55847930908203 -53.09492874145508
90.13375091552734 -87.62377166748047 -66.3196792602539
90.55632781982422 -88.420166015625 -24.850719451904297
90.47895812988281 -107.20255279541016 -99.72417449951172
89.73031616210938 -73.79505920410156 8.85863208770752
89.90455627441406 -103.76805114746094 -73.21672058105469
89.88219451904297 -59.18034362792969 -56.357154846191406
89.80322265625 -104.1877670288086 -76.96148681640625
90.14649200439453 -99.83472442626953 -56.12909698486328
89.97885131835938 -80.73150634765625 -75.53997039794922
90.02049255371094 52.7226448059082 -75.4140625
90.33303833007812 0.6356360912322998 -37.09504318237305
90.45986938476562 -109.49903869628906 -97.1677017211914
90.03701782226562 -101.9175033569336 -67.3953628540039
89.93251037597656 -14.240546226501465 -43.168296813964844
91.1920394897461 -110.42782592773438 -106.73350524902344
89.84741973876953 -21.177305221557617 -48.928611755371094
89.90353393554688 -103.68218231201172 -88.82208251953125
89.8189468383789 -95.18779754638672 -68.26062774658203
90.01422882080078 -106.95637512207031 -77.62538146972656
90.83719635009766 3.445110559463501 72.78670501708984
89.8571548461914 -102.3425064086914 -86.21209716796875
90.03350067138672 -106.83377075195312 -87.11544799804688
90.77976989746094 7.355294704437256 97.99536895751953
90.72411346435547 -111.93106079101562 -103.43115997314453
90.0175552368164 7.956071376800537 -67.61421966552734
90.6004638671875 63.68003845214844 -76.69669342041016
90.23367309570312 -7.567626953125 -40.4804801940918
90.4296875 55.393524169921875 -72.89852905273438
91.43521881103516 64.31419372558594 -77.04451751708984
91.98384857177734 -70.98509216308594 -96.24200439453125
91.98489379882812 -107.816162109375 -99.53704071044922
90.24058532714844 -106.93848419189453 -73.51849365234375
90.96941375732422 0.2134357988834381 -41.983299255371094
90.95130920410156 12.258940696716309 79.33800506591797
90.18253326416016 -102.02322387695312 -75.97891998291016
90.38616180419922 -73.00254821777344 -61.78864288330078
90.52042388916016 -100.4842300415039 -79.61454010009766
90.30873107910156 60.809749603271484 -70.57172393798828
92.19164276123047 -111.50428771972656 -104.4345703125
92.91486358642578 -99.67066192626953 -38.77858352661133
91.85212707519531 -67.08273315429688 31.742740631103516
90.55940246582031 -10.248663902282715 -38.23721694946289
90.42314147949219 -105.27884674072266 -97.00206756591797
90.41490173339844 -65.25626373291016 -59.11566925048828
90.3943862915039 -109.1723403930664 -79.06697845458984
90.7021484375 -107.32918548583984 -91.68183135986328
90.48277282714844 -74.77405548095703 -79.59400939941406
91.14851379394531 -101.268310546875 -97.86015319824219
90.28569030761719 -96.57383728027344 -101.42277526855469
92.20289611816406 -109.4260482788086 -108.00727844238281
91.45443725585938 -88.0099105834961 -102.01795959472656
90.598388671875 -95.85160064697266 -72.29052734375
91.82490539550781 -86.18212890625 -15.341123580932617
90.54949188232422 -11.979581832885742 -40.00457000732422
91.64738464355469 62.221336364746094 -73.32887268066406
90.79448699951172 -90.46417999267578 -68.9979248046875
90.57685089111328 -106.50231170654297 -94.28824615478516
90.56987762451172 -24.257848739624023 -51.78886032104492
90.83906555175781 -103.6036376953125 -65.40885925292969
90.69982147216797 -89.31634521484375 -73.41897583007812
92.31503295898438 -17.565698623657227 -47.12031555175781
90.62427520751953 -78.47406005859375 -64.36183166503906
90.9659423828125 60.936561584472656 -77.19298553466797
91.97113037109375 12.710456848144531 82.3826904296875
91.15406036376953 58.630859375 -73.85476684570312
90.9957504272461 -4.790041923522949 -37.4982795715332
91.1652603149414 -110.70568084716797 -84.36431121826172
90.7975082397461 -13.513138771057129 -41.38360595703125
91.18881225585938 -9.256070137023926 -11.636005401611328
91.12945556640625 -72.79916381835938 -87.7795181274414
91.70504760742188 -96.9571304321289 -74.90897369384766
91.03948974609375 60.11911392211914 -70.37504577636719
90.75493621826172 -2.487401247024536 -25.00785255432129
91.63054656982422 -95.49882507324219 -103.16768646240234
91.71946716308594 -3.545720338821411 -36.51167297363281
91.46189880371094 -110.85749816894531 -108.80023956298828
91.60893249511719 6.783550262451172 76.84941101074219
91.45115661621094 13.51148796081543 84.86214447021484
92.39710998535156 -88.1839599609375 -100.35317993164062
91.9129409790039 -110.7598648071289 -98.15641021728516
92.60009765625 -101.45219421386719 -44.74541473388672
92.13438415527344 -76.7708511352539 -98.23828887939453
91.91400146484375 -70.65516662597656 -92.10420227050781
91.0975570678711 -87.49364471435547 -100.47013854980469
90.92469024658203 -101.3863296508789 -52.814247131347656
91.01375579833984 -83.55271911621094 -73.79871368408203
91.17843627929688 -98.05186462402344 -75.80462646484375
90.96955871582031 -36.33409118652344 112.313720703125
91.58528137207031 -50.102806091308594 -54.96964645385742
92.36432647705078 -111.78277587890625 -89.2236099243164
91.25840759277344 -105.76757049560547 -98.68536376953125
91.04977416992188 -11.679871559143066 -17.95575523376465
91.42449951171875 -103.712158203125 -63.788875579833984
91.24491882324219 -43.64224624633789 -53.90009689331055
92.59259796142578 -107.30923461914062 -62.648014068603516
91.27487182617188 -111.13990783691406 -77.40634155273438
91.26726531982422 -79.68391418457031 -75.08739471435547
91.26067352294922 -1.2250418663024902 -36.50654220581055
91.25582122802734 -69.30733489990234 21.728544235229492
91.26045989990234 -77.7942123413086 5.527282238006592
91.36046600341797 -6.345727920532227 -22.930280685424805
93.56741333007812 -68.3558578491211 26.598941802978516
91.82762908935547 -71.97073364257812 15.22999095916748
91.80220031738281 -94.36619567871094 -74.21587371826172
91.45391845703125 -74.15843963623047 -80.45988464355469
92.11518096923828 -76.90064239501953 -76.68873596191406
91.57392120361328 -98.71349334716797 -75.7049560546875
92.22710418701172 -101.587646484375 -100.5023422241211
91.47496032714844 -0.0832369402050972 27.007356643676758
91.7547378540039 -1.1201045513153076 15.231705665588379
91.77881622314453 -57.695308685302734 -56.76686477661133
92.10337829589844 -1.1914613246917725 -32.417659759521484
92.6164779663086 -83.24591064453125 -67.866943359375
92.4665298461914 -87.98609161376953 -72.7594985961914
91.91199493408203 -108.8104019165039 -70.39234924316406
92.07225036621094 -104.2840805053711 -99.94416809082031
91.9248046875 -0.24461756646633148 33.67856979370117
91.99488830566406 -12.93493938446045 -41.56989669799805
92.27435302734375 -107.08736419677734 -101.98612976074219
92.76602935791016 -10.057987213134766 -35.0438117980957
91.77568817138672 -80.52200317382812 1.6263158321380615
92.12496948242188 -2.822545051574707 5.998514175415039
91.80706787109375 -65.0741958618164 79.43883514404297
93.06320190429688 -108.00398254394531 -100.60643005371094
92.16400146484375 -72.7353286743164 -85.09966278076172
92.30502319335938 -65.71981811523438 -59.84037780761719
91.8814468383789 -65.2655258178711 68.78839874267578
92.62125396728516 -112.82569885253906 -75.19415283203125
91.90438842773438 -65.49201202392578 73.58842468261719
93.15898132324219 -91.15568542480469 -22.573972702026367
92.84263610839844 -85.12439727783203 -102.54530334472656
93.77837371826172 -1.068807601928711 38.38045883178711
92.5687026977539 -3.03623628616333 -33.96710205078125
92.60601806640625 -4.83332633972168 -25.47089385986328
92.02791595458984 -62.73068618774414 86.45590209960938
94.21898651123047 -5.6923956871032715 51.8149528503418
91.88780212402344 -73.69050598144531 -62.8208122253418
91.90392303466797 -64.83650970458984 64.06918334960938
92.5885238647461 9.177790641784668 93.42272186279297
92.9376449584961 -110.92989349365234 -99.2064437866211
93.7027359008789 -10.592473983764648 111.53831481933594
93.54569244384766 -15.068926811218262 113.4040298461914
92.53019714355469 -66.15753173828125 48.26347351074219
93.53779602050781 -6.886302471160889 109.57550811767578
92.28517150878906 -60.02900695800781 92.32733917236328
92.48429870605469 -12.93109130859375 -39.04304504394531
92.57028198242188 -81.09677124023438 -74.1405258178711
92.86070251464844 -109.97771453857422 -106.46953582763672
92.81419372558594 -108.03883361816406 -104.99874114990234
92.82489013671875 -6.651543140411377 63.55267333984375
93.88488006591797 -30.840129852294922 -54.18690872192383
93.1676025390625 -107.69930267333984 -58.898189544677734
92.9786605834961 -94.03923034667969 -104.29348754882812
93.49968719482422 -21.7469425201416 114.54830169677734
92.97483825683594 -87.2856216430664 -103.49544525146484
92.42771911621094 -11.234055519104004 -21.50531768798828
93.12318420410156 -82.91148376464844 -1.6544286012649536
92.63444519042969 -5.475409030914307 -35.22841262817383
93.10889434814453 -93.0803451538086 -75.64122772216797
91.97622680664062 -57.39455032348633 97.17192077636719
92.56037139892578 8.572159767150879 79.09491729736328
93.31413269042969 -64.07453918457031 -95.54788970947266
95.21827697753906 -3.7455170154571533 106.7418212890625
92.6869125366211 -111.3106689453125 -95.08555603027344
92.94837188720703 -67.82868957519531 -89.59928131103516
93.01872253417969 -114.32369995117188 -78.91553497314453
92.85293579101562 -87.33425903320312 -70.28437042236328
92.7986831665039 -68.99079132080078 -62.12469482421875
93.39485168457031 -23.666231155395508 -52.901153564453125
94.110107421875 -66.75017547607422 -87.49736785888672
92.7956314086914 -86.36717224121094 -84.31117248535156
92.8104476928711 -80.84833526611328 -86.66168975830078
93.54855346679688 -6.126005172729492 -27.093210220336914
92.88053131103516 -30.11292839050293 114.53266143798828
92.85678100585938 -66.777099609375 38.991641998291016
94.17082214355469 -102.67741394042969 -102.50895690917969
92.93014526367188 -86.77618408203125 -86.95158386230469
94.30741119384766 -113.52721405029297 -73.30626678466797
93.13551330566406 -5.4568352699279785 -2.598381996154785
93.39585876464844 -67.16505432128906 -99.25598907470703
92.97928619384766 10.605193138122559 89.59883117675781
94.36280059814453 -14.867650985717773 -45.06877517700195
94.8352279663086 -89.39468383789062 -104.6103286743164
93.072509765625 -74.83955383300781 -87.08512115478516
94.5279312133789 -105.69901275634766 -102.1583480834961
93.09115600585938 -80.00070190429688 -84.92803192138672
94.59122467041016 -86.9117660522461 -8.057583808898926
93.50054931640625 -114.83195495605469 -84.04491424560547
94.17208099365234 -49.845027923583984 -55.62225341796875
95.28343200683594 -38.30879211425781 -54.08914566040039
93.57186126708984 -8.842425346374512 -31.730209350585938
94.41404724121094 -76.44390869140625 -102.42928314208984
93.65784454345703 -62.85133361816406 -92.45940399169922
93.16227722167969 -74.74909973144531 -78.80853271484375
94.67935180664062 -10.763219833374023 -21.004051208496094
95.28890228271484 -55.43034362792969 -56.00104522705078
