NOTE openvision4
VERSION .7
FIELDS x y z
TYPE F F F
COUNT 1 1 1
WIDTH 841
HEIGHT 1
VIEWPOINT 0 0 0 1 0 0 0
POINTS 841
DATA ascii
-10.87436580657959 -84.13299560546875 -32.279022216796875
-17.901405334472656 -70.33216094970703 23.616060256958008
-25.288715362548828 22.98279571533203 -37.60114669799805
-23.04560089111328 14.178932189941406 -52.16571044921875
-20.584514617919922 0.7235248684883118 -53.942134857177734
-18.563304901123047 -22.556846618652344 -48.315311431884766
-12.080649375915527 -86.7486572265625 -13.348995208740234
-21.276809692382812 -64.41179656982422 36.12260437011719
-18.322738647460938 -9.939059257507324 -53.02309799194336
-24.442249298095703 32.4476203918457 -65.16230773925781
-24.274879455566406 29.827709197998047 -63.10353469848633
-24.191787719726562 -51.05159378051758 43.79681396484375
-25.0810546875 41.2372932434082 -65.6505126953125
-29.521221160888672 56.5341911315918 -38.32955551147461
-21.24636459350586 -46.54975128173828 12.203848838806152
-35.1246337890625 -25.66220474243164 118.39833068847656
-24.433738708496094 23.84516143798828 -50.037593841552734
-19.828685760498047 -66.72014617919922 34.42125701904297
-33.23548126220703 -34.631866455078125 113.11314392089844
-28.166419982910156 38.409053802490234 -27.296356201171875
-23.564041137695312 -57.299259185791016 57.03338623046875
-20.81808853149414 -46.33366394042969 9.691100120544434
-26.49362564086914 51.8802490234375 -62.07048034667969
-14.786140441894531 -79.85931396484375 7.677112579345703
-29.844539642333984 50.441978454589844 -30.94695281982422
-20.095821380615234 -41.19293975830078 -1.6380031108856201
-25.03577423095703 2.46140456199646 -11.990555763244629
-24.20714569091797 21.030914306640625 -49.208431243896484
-25.54517364501953 17.816627502441406 -24.370155334472656
-28.115005493164062 40.566707611083984 -26.712812423706055
-26.02141571044922 27.17760467529297 -38.76365661621094
-33.19615936279297 -32.55765151977539 111.83892822265625
-14.62054443359375 -47.233699798583984 -45.06974411010742
-10.650870323181152 -81.32357788085938 -37.86431121826172
-24.735214233398438 -57.65419387817383 61.741886138916016
-21.804832458496094 -62.00271987915039 52.44017028808594
-33.163429260253906 -35.547664642333984 112.77653503417969
-21.1988525390625 -63.50440979003906 49.51194381713867
-20.649890899658203 -34.30044937133789 -4.376245021820068
-35.154693603515625 -23.802513122558594 118.22305297851562
-22.814395904541016 26.74423599243164 -60.93156814575195
-26.657363891601562 30.8543758392334 -33.225833892822266
-33.97373962402344 -35.68705749511719 119.48179626464844
-24.127513885498047 -60.52572250366211 63.195762634277344
-23.290573120117188 21.951019287109375 -53.99248504638672
-23.530899047851562 -59.37897872924805 57.9542121887207
-22.715801239013672 -19.895030975341797 -3.871354103088379
-22.835079193115234 -59.70231246948242 53.887176513671875
-25.431171417236328 24.45008659362793 -34.064579010009766
-24.328765869140625 -58.452938079833984 67.91213989257812
-25.043914794921875 -55.83256912231445 68.25288391113281
-25.86081314086914 28.550344467163086 -34.5349235534668
-21.793487548828125 -26.424850463867188 -3.713813304901123
-32.50331115722656 -30.908550262451172 111.79551696777344
-31.79889678955078 -36.81330490112305 120.85035705566406
-8.988524436950684 -88.01702880859375 -25.099010467529297
-23.488563537597656 41.67231369018555 -67.3631591796875
-28.542572021484375 61.7452507019043 -44.64249038696289
-19.62140655517578 -38.89323425292969 -3.479861259460449
-18.412025451660156 -3.4655942916870117 -55.40983963012695
-22.198963165283203 -52.85152816772461 53.730098724365234
-23.069133758544922 34.64547348022461 -67.96511840820312
-12.430907249450684 -55.342655181884766 -49.89073944091797
-29.580093383789062 46.888397216796875 -25.1077823638916
-22.043807983398438 -47.23256301879883 29.453645706176758
-11.584235191345215 -61.14290237426758 -49.5166015625
-31.559696197509766 -39.230377197265625 114.6640625
-18.26604461669922 -66.90979766845703 39.47650146484375
-22.26675033569336 -61.1947135925293 57.04130172729492
-22.48486328125 -47.81605911254883 34.87260818481445
-12.05564022064209 -85.56938171386719 -6.155355453491211
-31.158050537109375 51.45103454589844 -17.798789978027344
-20.766048431396484 11.433652877807617 -56.76497268676758
-22.76797103881836 -13.785002708435059 -4.088013172149658
-30.623493194580078 49.395484924316406 -15.309591293334961
-29.18570327758789 50.89577102661133 -26.646774291992188
-31.102222442626953 56.26478576660156 -17.382169723510742
-23.284046173095703 -55.76030349731445 57.27085494995117
-34.58038330078125 -33.0015869140625 119.05622863769531
-29.177616119384766 45.29194641113281 -20.761213302612305
-24.267723083496094 -54.730472564697266 64.12643432617188
-29.71835708618164 -34.98202896118164 107.19465637207031
-24.952640533447266 -53.657901763916016 68.65885925292969
-26.912067413330078 35.349300384521484 -27.148426055908203
-12.520773887634277 -52.165042877197266 -49.48632049560547
-31.133583068847656 53.36592483520508 -12.684898376464844
-24.750423431396484 9.680510520935059 -14.833730697631836
-26.67205047607422 33.24029541015625 -29.00819969177246
-29.663955688476562 -28.73681640625 118.65701293945312
-22.059402465820312 -62.762779235839844 62.438392639160156
-28.5050048828125 61.4781379699707 -38.94837951660156
-22.746536254882812 -50.019535064697266 45.405975341796875
-29.404296875 47.80659484863281 -22.324657440185547
-19.429122924804688 -40.75291061401367 1.7773531675338745
-8.889883995056152 -84.2079849243164 -35.7757682800293
-14.106894493103027 -41.21848678588867 -45.9825439453125
-20.236141204833984 -46.95212936401367 19.488441467285156
-19.11579132080078 -35.97270202636719 -3.1316022872924805
-17.290470123291016 -67.14510345458984 44.97533416748047
-21.326004028320312 20.3714542388916 -59.13441848754883
-15.85845947265625 -16.94993019104004 -52.96837615966797
-24.934707641601562 25.998437881469727 -28.624120712280273
-10.020575523376465 -68.76434326171875 -47.09731674194336
-24.23794937133789 -52.99592971801758 72.82760620117188
-12.675589561462402 -48.955780029296875 -48.14657974243164
-28.455490112304688 53.61691665649414 -27.978708267211914
-27.67241668701172 56.13524627685547 -32.613285064697266
-27.590381622314453 62.70174789428711 -47.094993591308594
-32.29005432128906 -30.418964385986328 111.36000061035156
-22.411128997802734 -60.67911148071289 67.52033996582031
-23.550525665283203 -57.82942581176758 71.34503173828125
-8.983199119567871 -90.12637329101562 -17.434978485107422
-32.064720153808594 -37.937049865722656 114.8958740234375
-30.545459747314453 58.936676025390625 -15.917325973510742
-28.947723388671875 46.78384017944336 -10.920143127441406
-24.758502960205078 16.36292266845703 -19.413381576538086
-31.973804473876953 -22.34841537475586 118.54531860351562
-31.969005584716797 -27.506061553955078 113.53739929199219
-18.923294067382812 -44.80560302734375 9.613957405090332
-27.391902923583984 38.9320182800293 -23.008207321166992
-18.410865783691406 -39.3495979309082 -1.6513454914093018
-19.39471435546875 -46.26104736328125 14.955976486206055
-19.32650375366211 -45.04544448852539 12.539475440979004
-21.11603546142578 41.051448822021484 -70.79983520507812
-22.88089370727539 0.00011897087097167969 -7.309576034545898
-12.400603294372559 -46.856998443603516 -47.115867614746094
-27.786109924316406 42.749149322509766 -16.151742935180664
-20.80792236328125 -19.101152420043945 -1.9168410301208496
-31.241615295410156 -38.454288482666016 120.00933837890625
-9.667105674743652 -89.14140319824219 -10.905082702636719
-31.320751190185547 -31.666030883789062 109.16921997070312
-8.25351619720459 -78.61858367919922 -42.315940856933594
-28.79104232788086 -44.670284271240234 101.50471496582031
-22.859737396240234 46.27449417114258 -68.38580322265625
-30.668258666992188 -37.12903594970703 110.27433776855469
-28.37158203125 -43.60554885864258 98.52609252929688
-20.181560516357422 -63.201377868652344 55.795345306396484
-28.509971618652344 -41.58832931518555 100.72869873046875
-30.374618530273438 52.89813232421875 -9.383698463439941
-17.03638458251953 -69.16938781738281 28.71682357788086
-44.035118103027344 99.0103988647461 52.65230941772461
-23.632259368896484 -52.487117767333984 67.14540100097656
-21.791030883789062 -53.457515716552734 57.89756393432617
-15.047592163085938 -75.78399658203125 17.515602111816406
-24.37863540649414 31.94346809387207 -27.41973304748535
-24.20279312133789 -53.95279312133789 74.92425537109375
-19.35192108154297 -65.20551300048828 48.77534103393555
-44.53032684326172 102.54241943359375 54.361663818359375
-28.710411071777344 54.7248420715332 -25.404876708984375
-28.579139709472656 -43.2769660949707 104.10440063476562
-20.340248107910156 26.52773666381836 -67.87055969238281
-20.409137725830078 -27.246234893798828 -2.463782787322998
-20.38007354736328 -64.45060729980469 61.276912689208984
-43.4012451171875 98.88652801513672 53.38737487792969
-32.451576232910156 -21.926151275634766 118.13931274414062
-29.328453063964844 58.98738479614258 -19.74078369140625
-18.19432830810547 7.971585273742676 -60.113243103027344
-10.112105369567871 -86.67310333251953 0.017084360122680664
-28.517024993896484 -45.28615188598633 103.64863586425781
-29.17163848876953 47.99056625366211 -8.99740219116211
-31.045761108398438 63.33256530761719 -11.283649444580078
-43.89539337158203 102.62939453125 54.99127960205078
-30.218799591064453 52.42097091674805 -7.330793380737305
-23.402202606201172 -51.34614181518555 72.53681945800781
-30.008159637451172 59.809486389160156 -16.646621704101562
-26.653446197509766 -45.138675689697266 94.55796813964844
-30.976348876953125 69.52157592773438 -8.627330780029297
-29.481914520263672 -37.368370056152344 107.65998840332031
-11.988295555114746 -81.67220306396484 11.201008796691895
-23.25458526611328 -56.422428131103516 74.76531982421875
-25.280433654785156 -50.419952392578125 85.62638854980469
-18.841228485107422 22.709022521972656 -66.56507873535156
-26.75762939453125 -46.961307525634766 98.59603881835938
-29.780136108398438 -41.177894592285156 116.85911560058594
-28.845291137695312 -39.146263122558594 104.55963134765625
-26.40243911743164 -44.076087951660156 93.53840637207031
-26.614280700683594 40.93815612792969 -16.405662536621094
-21.82305908203125 53.385894775390625 -67.77604675292969
-28.036590576171875 -41.678794860839844 104.35232543945312
-27.925518035888672 62.27054214477539 -37.784481048583984
-14.773422241210938 -36.03909683227539 -1.0703113079071045
-29.437339782714844 -33.60345458984375 106.67236328125
-19.869586944580078 29.57771110534668 -70.136962890625
-28.996532440185547 -41.01055908203125 114.06997680664062
-22.80319595336914 7.4263410568237305 -9.743743896484375
-26.851722717285156 -45.930999755859375 96.33799743652344
-43.21055603027344 104.01255798339844 55.14295959472656
-10.507750511169434 -85.1312026977539 5.182056427001953
-14.523239135742188 -70.57947540283203 26.771282196044922
-19.234394073486328 -46.37936019897461 27.417156219482422
-16.655677795410156 18.567176818847656 -66.81076049804688
-13.21402645111084 -22.05384063720703 -53.06802749633789
-26.703510284423828 65.36441040039062 -41.638999938964844
-26.436786651611328 57.728309631347656 -57.95743179321289
-39.96977996826172 95.11628723144531 45.609947204589844
-18.47589111328125 17.13599395751953 -63.02578353881836
-19.92007827758789 -46.977691650390625 34.42469787597656
-27.610794067382812 -45.77561950683594 106.26974487304688
-41.44158172607422 98.42778778076172 45.95962142944336
-6.514410972595215 -83.50260925292969 -39.1014289855957
-20.35382843017578 -49.8060302734375 47.311363220214844
-20.014842987060547 37.85175704956055 -71.46875
-16.502159118652344 -38.1617546081543 -1.4615745544433594
-29.25467300415039 -28.272422790527344 110.93960571289062
-43.961029052734375 104.87126159667969 55.56623840332031
-27.674880981445312 -39.49473571777344 100.21087646484375
-6.302641868591309 -87.13726043701172 -32.39662170410156
-28.871082305908203 -39.07349395751953 109.84294128417969
-30.71337890625 -36.766212463378906 119.91744995117188
-11.708113670349121 -39.44347381591797 -48.343936920166016
-24.546157836914062 -51.99099349975586 86.24945068359375
-29.235790252685547 50.32449722290039 -6.436432838439941
-21.300045013427734 -59.23756790161133 74.66578674316406
-17.968509674072266 -46.73052215576172 20.372060775756836
-41.59962463378906 101.18511199951172 46.39243698120117
-19.14349365234375 -66.77167510986328 60.53317642211914
-28.72437286376953 -29.561595916748047 108.21966552734375
-30.05908203125 61.685089111328125 -5.696655750274658
-13.930441856384277 -31.947437286376953 -48.774208068847656
-18.49786376953125 -66.09036254882812 55.77942657470703
-41.74497985839844 95.23192596435547 51.2951545715332
-22.151580810546875 -51.789241790771484 65.26323699951172
-15.560737609863281 -39.13152313232422 0.3936083912849426
-30.95734405517578 71.26657104492188 -5.746799945831299
-23.768089294433594 26.912731170654297 -23.49408531188965
-41.31304931640625 99.49308776855469 43.98368453979492
-23.482402801513672 21.462663650512695 -18.57229232788086
-23.108318328857422 15.170266151428223 -13.769347190856934
-27.90445327758789 44.979522705078125 -12.428293228149414
-14.337272644042969 -72.70584106445312 23.394371032714844
-19.42060089111328 48.37373733520508 -72.7235107421875
-28.09710693359375 -40.733154296875 117.85993957519531
-19.029582977294922 -64.2309799194336 67.03738403320312
-16.915729522705078 -40.868553161621094 3.9724490642547607
-25.334712982177734 -43.69745635986328 91.62582397460938
-23.22219467163086 -54.043636322021484 83.0863037109375
-39.430755615234375 93.77243041992188 51.51652526855469
-27.079978942871094 -42.161659240722656 106.64691162109375
-21.68242645263672 -50.35393524169922 71.78697204589844
-25.592002868652344 60.60245895385742 -31.30510711669922
-28.484737396240234 -26.85544204711914 112.62982177734375
-20.121200561523438 -13.89182186126709 -1.3926172256469727
-17.304306030273438 -46.48429870605469 16.4617977142334
-16.11620330810547 -68.37095642089844 33.63182067871094
-29.136878967285156 53.27133560180664 -4.551026821136475
-24.50428009033203 34.65168380737305 -24.42587661743164
-29.725788116455078 60.26280212402344 -4.494024753570557
-26.682151794433594 57.1030387878418 -28.813339233398438
-25.552745819091797 38.60382080078125 -19.492122650146484
-27.242996215820312 -40.554569244384766 108.30143737792969
-40.272064208984375 95.0863037109375 44.75337219238281
-20.54336929321289 -9.136122703552246 -2.2348501682281494
-17.290416717529297 -44.893211364746094 13.199848175048828
-23.926010131835938 61.2872314453125 -57.40042495727539
-12.811064720153809 -77.55743408203125 17.9420223236084
-28.482986450195312 -32.7437858581543 106.15509033203125
-28.98395538330078 71.48081970214844 -13.978805541992188
-30.759998321533203 74.73835754394531 -8.713204383850098
-28.03319549560547 61.73341369628906 -17.658462524414062
-24.998046875 -49.78455352783203 100.47508239746094
-16.701156616210938 -44.40016555786133 10.072890281677246
-40.83275604248047 103.16200256347656 45.27019119262695
-25.59253692626953 -48.4816780090332 98.43310546875
-22.383838653564453 -55.780208587646484 82.81674194335938
-30.370513916015625 67.17223358154297 -4.629147529602051
-25.866107940673828 62.55554962158203 -52.54318618774414
-24.29987335205078 -51.475772857666016 91.24449157714844
-6.342452049255371 -89.63996887207031 -24.680082321166992
-26.089431762695312 -46.71238327026367 107.67424011230469
-27.232261657714844 -40.51620101928711 111.99015808105469
-42.430335998535156 97.59823608398438 52.02741622924805
-29.552444458007812 -29.965736389160156 119.27436828613281
-20.75326156616211 0.6474473476409912 -4.692087650299072
-28.849010467529297 -26.193252563476562 118.6893310546875
-14.07071590423584 -12.24524211883545 -56.20308303833008
-17.780776977539062 31.61280632019043 -72.64773559570312
-26.725093841552734 -40.91316223144531 95.89564514160156
-24.267749786376953 -44.637451171875 87.912109375
-34.577674865722656 88.403076171875 3.4219088554382324
-7.574973106384277 -90.71428680419922 -9.970173835754395
-33.919395446777344 86.24242401123047 0.43378710746765137
-27.59539031982422 -41.11068344116211 115.26834106445312
-26.68902587890625 -38.56735610961914 99.87120056152344
-33.81066131591797 87.6887435913086 -2.1404619216918945
-33.11278533935547 82.33379364013672 -2.051905632019043
-17.687023162841797 -66.83595275878906 55.560020446777344
-33.00968933105469 84.10604858398438 -4.381322860717773
-6.678427696228027 -91.7511978149414 -16.627683639526367
-26.334552764892578 -44.65331268310547 107.91943359375
-34.2574462890625 86.92317199707031 3.929140329360962
-23.42306137084961 -53.17818832397461 92.97256469726562
-26.305648803710938 58.85795974731445 -24.448848724365234
-37.67108154296875 101.6780776977539 53.52412033081055
-18.271278381347656 -67.54561614990234 60.96697235107422
-41.211639404296875 107.21955871582031 56.44733428955078
-20.461326599121094 -59.61648178100586 74.95416259765625
-8.03037166595459 -53.98173904418945 -52.03950881958008
-34.05366516113281 90.4003677368164 1.3303536176681519
-22.157028198242188 56.57133483886719 -64.79823303222656
-27.359439849853516 64.0582275390625 -16.824710845947266
-20.181896209716797 -52.48434829711914 59.43829345703125
-22.79123306274414 34.072269439697266 -23.098522186279297
-28.81460952758789 59.406494140625 -3.1365604400634766
-17.01789093017578 -24.826892852783203 -0.21536016464233398
-28.436046600341797 67.28943634033203 -16.07225799560547
-27.595653533935547 49.21112823486328 -4.584299087524414
-21.366943359375 -56.716556549072266 81.63316345214844
-32.67799377441406 80.58850860595703 0.1770695447921753
-31.271438598632812 77.35977172851562 -5.322175979614258
-19.88052749633789 -51.55857467651367 62.58000946044922
-28.49557113647461 -21.029720306396484 118.50613403320312
-22.554798126220703 32.33578109741211 -22.306882858276367
-27.014827728271484 -21.518115997314453 119.41921997070312
-26.751270294189453 46.019935607910156 -6.397132873535156
-14.551239013671875 1.823179006576538 -61.91210174560547
-37.93507385253906 98.41031646728516 39.604244232177734
-25.649478912353516 42.678897857666016 -10.573803901672363
-40.13135528564453 103.67925262451172 46.82278823852539
-22.725685119628906 27.715171813964844 -20.717737197875977
-40.14686584472656 106.94601440429688 56.746097564697266
-38.03898620605469 96.46128845214844 31.018238067626953
-25.450931549072266 66.13833618164062 -45.70806884765625
-21.02184295654297 7.476480484008789 -7.123138427734375
-32.914703369140625 83.68174743652344 1.6215871572494507
-38.37394714355469 98.31813049316406 32.68516540527344
-15.721172332763672 -47.64275360107422 20.177703857421875
-37.81006622314453 98.76537322998047 29.19462013244629
-14.395500183105469 -68.36117553710938 33.1162109375
-38.885894775390625 103.30089569091797 41.31993865966797
-26.37041473388672 -37.23078918457031 120.05387878417969
-33.02845001220703 89.45258331298828 -2.7708568572998047
-6.515326499938965 -60.881900787353516 -52.159568786621094
-22.24692153930664 22.383014678955078 -16.009607315063477
-31.42559051513672 76.75505828857422 -1.4558537006378174
-38.90777587890625 92.82392883300781 49.95722579956055
-38.88078308105469 101.48487091064453 40.34365463256836
-37.82636260986328 94.1816635131836 42.96417236328125
-25.116500854492188 -46.968448638916016 108.72731018066406
-16.16122817993164 -66.85640716552734 53.352664947509766
-32.287879943847656 85.49920654296875 -5.721477508544922
-25.00457000732422 -45.415504455566406 108.94863891601562
-13.080069541931152 -70.74980163574219 27.36033821105957
-30.93548583984375 76.70431518554688 0.87447190284729
-29.354904174804688 79.93441772460938 -10.337051391601562
-21.673480987548828 16.066692352294922 -11.362584114074707
-12.685416221618652 18.080677032470703 -72.14244079589844
-30.959850311279297 81.18694305419922 -7.319525718688965
-23.581619262695312 -43.238040924072266 90.21966552734375
-14.70819091796875 11.60555648803711 -66.20149230957031
-27.21887969970703 -32.161346435546875 106.24998474121094
-8.05179500579834 -87.29475402832031 4.432988166809082
-24.298439025878906 -39.98666763305664 94.68875122070312
-16.182544708251953 -46.584232330322266 29.20484161376953
-17.239681243896484 -47.03376770019531 33.993194580078125
-37.77336883544922 101.40574645996094 31.41473388671875
-15.630607604980469 -46.72426986694336 25.698387145996094
-19.577377319335938 53.26530456542969 -72.20584106445312
-25.22882080078125 64.96499633789062 -35.29570770263672
-33.81877899169922 89.95326232910156 7.046536445617676
-36.53705596923828 93.54539489746094 33.28296661376953
-33.514503479003906 87.76937866210938 7.341999530792236
-22.72356414794922 -52.25472640991211 94.64189147949219
-20.619579315185547 55.8265266418457 -68.58175659179688
-8.241827964782715 -32.45643615722656 -52.107765197753906
-23.995983123779297 61.153724670410156 -27.53822898864746
-36.82514190673828 94.61587524414062 34.32932662963867
-16.849151611328125 -67.60453033447266 60.49751281738281
-10.589560508728027 -78.13825225830078 19.057828903198242
-19.448108673095703 -58.40212631225586 76.05364990234375
-18.61518096923828 -61.772151947021484 70.64500427246094
-14.633041381835938 39.48794174194336 -77.79695129394531
-25.430133819580078 -37.78661346435547 100.04226684570312
-15.362724304199219 -45.37694549560547 13.621706008911133
-26.34709930419922 -39.64207458496094 118.25399780273438
-38.06200408935547 100.44248962402344 38.22200393676758
-5.007353782653809 -68.51127624511719 -49.70579147338867
-25.571712493896484 -42.52705383300781 107.86119079589844
-26.675453186035156 -38.500205993652344 118.91844177246094
-14.409561157226562 -40.81666946411133 3.7339155673980713
-17.281108856201172 -66.7007827758789 63.61788558959961
-20.780628204345703 -54.78793716430664 84.34005737304688
-7.637274742126465 -48.52494812011719 -50.76698684692383
-18.995285034179688 -51.93458938598633 55.77415084838867
-25.196613311767578 -40.92725372314453 109.22872924804688
-37.671226501464844 99.71319580078125 35.92692565917969
-18.13416290283203 -52.36587142944336 59.42647933959961
-24.78771209716797 -47.80604553222656 105.65960693359375
-35.92875671386719 94.98975372314453 28.999528884887695
-21.714054107666016 63.99843978881836 -57.38671875
-37.306373596191406 91.82218933105469 45.39591979980469
-20.207393646240234 -49.20649719238281 75.07298278808594
-11.953787803649902 -45.54279327392578 11.666229248046875
-7.573256492614746 -38.50074005126953 -51.10753631591797
-8.881781578063965 -83.34125518798828 12.014511108398438
-35.96052551269531 96.40679931640625 26.62504768371582
-26.23040771484375 -28.078521728515625 110.79237365722656
-28.932777404785156 68.9412841796875 0.8230267763137817
-15.389663696289062 23.42268180847168 -72.02572631835938
-24.61771011352539 67.89398193359375 -38.468475341796875
-37.22651672363281 97.87471771240234 34.88417053222656
-37.599700927734375 102.22126007080078 36.08303451538086
-3.9931020736694336 -74.82669830322266 -46.496280670166016
-15.042816162109375 -66.79547882080078 45.88753128051758
-10.835959434509277 -17.27398109436035 -56.31657028198242
-20.484577178955078 60.000919342041016 -64.14801025390625
-37.737632751464844 92.41970825195312 45.85462188720703
-33.50053405761719 89.8752212524414 10.517754554748535
-34.98731994628906 92.4726791381836 31.057857513427734
-5.448027610778809 -91.82909393310547 -9.256244659423828
-36.62401580810547 100.90180969238281 28.114742279052734
-6.276541709899902 -45.10654067993164 -51.31281280517578
-36.78575897216797 96.4277572631836 40.05196762084961
-30.220001220703125 87.88201141357422 -6.74111270904541
-12.940817832946777 -67.8143310546875 32.958152770996094
-15.840774536132812 34.9588508605957 -75.00143432617188
-2.680006980895996 -86.78357696533203 -36.131752014160156
-3.8388586044311523 -90.8597183227539 -23.91993522644043
-13.234702110290527 -38.77286148071289 0.19098663330078125
-21.776233673095703 -43.31903839111328 90.81217956542969
-38.62133026123047 105.39142608642578 45.90202331542969
-22.616439819335938 37.46213912963867 -18.830034255981445
-33.38658142089844 92.97450256347656 10.266597747802734
-26.69298553466797 52.32948684692383 -2.0952701568603516
-35.70684814453125 97.45874786376953 25.33409309387207
-38.41133117675781 94.28926849365234 50.68317794799805
-25.86481475830078 48.79105758666992 -2.7511606216430664
-2.8582677841186523 -80.26310729980469 -43.33837890625
-22.188369750976562 -48.419952392578125 100.14634704589844
-16.418262481689453 -65.51353454589844 64.13258361816406
-14.594474792480469 -48.47073745727539 22.9592342376709
-36.09962463378906 92.14823913574219 47.203670501708984
-32.25837707519531 93.89441680908203 8.30825424194336
-30.2562255859375 92.08731842041016 -2.9612159729003906
-5.997382164001465 -89.61519622802734 0.15604770183563232
-27.272830963134766 -28.505802154541016 118.91459655761719
-4.16776180267334 -92.75115203857422 -16.108522415161133
-23.921802520751953 -46.37257766723633 107.82366943359375
-38.242919921875 104.91259765625 42.97985076904297
-27.60922622680664 60.32456970214844 -1.4072191715240479
-24.147808074951172 68.412353515625 -43.42960739135742
-34.73497772216797 93.14704895019531 24.229162216186523
-24.64093017578125 44.761756896972656 -5.226609230041504
-17.428485870361328 51.915283203125 -77.46878051757812
-11.209219932556152 -9.924309730529785 -59.43474197387695
-16.55675506591797 42.79252243041992 -76.02664184570312
-23.78634262084961 -42.20994186401367 107.73707580566406
-17.59168243408203 -59.99131393432617 70.43617248535156
-25.85988998413086 -31.959270477294922 106.85713195800781
-19.57775115966797 58.37596130371094 -70.01246643066406
-24.139190673828125 -37.6658821105957 100.34312438964844
-19.52902603149414 -50.04265594482422 71.79374694824219
-23.312400817871094 41.69638442993164 -10.053071975708008
-16.081851959228516 48.90066146850586 -79.35787963867188
-34.87714385986328 98.56654357910156 23.989255905151367
-32.449073791503906 87.66466522216797 11.025339126586914
-25.251155853271484 -29.382747650146484 109.34684753417969
-12.671309471130371 25.845184326171875 -75.53338623046875
-32.853660583496094 84.49676513671875 3.4218153953552246
-36.11076354980469 96.88904571533203 37.646881103515625
-28.207313537597656 75.57083892822266 3.0112547874450684
-8.728270530700684 -76.46495819091797 21.802595138549805
-15.6815185546875 -67.06934356689453 60.9211311340332
-14.919937133789062 -65.2100601196289 54.72534942626953
-14.035391807556152 -65.58373260498047 45.4772834777832
-30.468616485595703 80.40853881835938 3.6047768592834473
-17.571624755859375 -51.90754318237305 55.09642028808594
-17.83877944946289 -7.349184989929199 -0.16444933414459229
-24.331634521484375 61.29826354980469 -22.206384658813477
-25.54688262939453 -22.744823455810547 119.08140563964844
-20.077407836914062 63.49629592895508 -61.313724517822266
-14.954399108886719 -65.98237609863281 60.6158561706543
-22.032913208007812 -40.60887908935547 94.56292724609375
-11.300177574157715 -2.654022216796875 -62.73598861694336
-24.32642364501953 -40.27907180786133 112.06773376464844
-16.823917388916016 -12.450495719909668 0.8553629517555237
-9.13944149017334 -24.41069793701172 -54.4476318359375
-19.123241424560547 -51.73701858520508 83.0782470703125
-11.52091121673584 -69.12936401367188 29.414764404296875
-34.98895263671875 93.89656829833984 34.89122009277344
-24.05423355102539 60.75818634033203 -24.836061477661133
-14.889694213867188 -63.522300720214844 53.52139663696289
-33.11859130859375 90.69328308105469 21.858322143554688
-15.040611267089844 -47.74531936645508 34.511329650878906
-17.636032104492188 -50.989253997802734 66.56552124023438
-17.836654663085938 -54.93015670776367 75.21226501464844
-12.953055381774902 -46.977745056152344 15.705087661743164
-24.27779769897461 -40.869380950927734 115.84346008300781
-18.885181427001953 28.702945709228516 -14.649515151977539
-13.552123069763184 -48.201866149902344 19.879480361938477
-36.321083068847656 102.87364196777344 30.972368240356445
-33.303924560546875 91.86285400390625 33.792484283447266
-18.34432601928711 4.843117713928223 -3.3374600410461426
-23.901161193847656 63.2569580078125 -18.090530395507812
-31.42418670654297 86.67706298828125 12.325714111328125
-12.252867698669434 -66.48438262939453 35.62028121948242
-13.829390525817871 -63.40330505371094 45.1638069152832
-37.536277770996094 105.33809661865234 47.20211410522461
-35.59992218017578 92.48464965820312 44.142398834228516
-37.4818115234375 100.38040161132812 53.440189361572266
-22.55349349975586 68.37591552734375 -47.74501037597656
-19.17291259765625 -49.26034164428711 77.25312805175781
-21.76763916015625 -45.747989654541016 104.69194030761719
-36.625221252441406 103.75310516357422 54.64176940917969
-35.72557067871094 103.8838882446289 35.3769645690918
-33.821128845214844 91.59901428222656 27.357257843017578
-15.301414489746094 -18.03567886352539 1.4360219240188599
-35.49988555908203 94.0700912475586 42.92283248901367
-35.84117126464844 96.25753784179688 35.765586853027344
-7.261305809020996 -82.32272338867188 14.661429405212402
-18.219924926757812 -50.72050094604492 72.02569580078125
-31.369937896728516 93.66716766357422 3.1507022380828857
-13.116927146911621 -48.338340759277344 25.445566177368164
-15.575691223144531 -63.029083251953125 63.73625946044922
-18.769142150878906 14.769905090332031 -7.075763702392578
-11.742758750915527 11.739914894104004 -69.48298645019531
-25.01616668701172 -28.208099365234375 112.08515930175781
0.7174995541572571 -89.23563385009766 -31.945083618164062
-29.715076446533203 82.422607421875 5.32503604888916
-22.736549377441406 66.28446960449219 -32.14002990722656
-11.218108177185059 4.995197296142578 -66.44071960449219
-21.51218032836914 -43.27997970581055 106.45793151855469
-23.010189056396484 -38.902183532714844 109.46832275390625
-18.289783477783203 62.764503479003906 -66.46466064453125
-21.222618103027344 -48.32678985595703 96.17329406738281
-11.926749229431152 -65.0667724609375 36.86871337890625
-4.739500999450684 -87.61077880859375 6.783595561981201
-14.172263145446777 -43.60196304321289 8.896324157714844
-16.966075897216797 63.09197235107422 -75.92622375488281
-27.325931549072266 75.27606201171875 -13.766744613647461
-16.386363983154297 -54.4902229309082 70.50653076171875
-0.709082841873169 -84.52308654785156 -39.8742790222168
-23.05634307861328 -37.36459732055664 101.58628845214844
-14.4520263671875 -62.79132080078125 60.302886962890625
-24.46004867553711 -31.908775329589844 108.80992126464844
-25.395076751708984 60.363609313964844 0.1601945161819458
-16.22332000732422 -53.22275161743164 58.1287956237793
-18.029888153076172 -51.55208969116211 75.955322265625
-36.691871643066406 108.29651641845703 57.18019485473633
-14.066924095153809 -23.0989990234375 1.23305344581604
-24.749500274658203 51.81816864013672 -0.7386775016784668
-14.133681297302246 -63.03898620605469 59.175621032714844
-22.009288787841797 -38.787601470947266 99.5972900390625
-13.751334190368652 -61.94681930541992 48.64019775390625
-35.156028747558594 107.57831573486328 57.62924575805664
-26.700275421142578 64.78932189941406 1.0619614124298096
-34.050636291503906 93.31936645507812 36.41358947753906
-11.196593284606934 -63.75896453857422 35.385581970214844
-2.963080406188965 -92.54098510742188 -8.700634002685547
-14.322921752929688 -62.06193923950195 54.9987907409668
-30.25949478149414 84.35381317138672 9.182568550109863
-23.632957458496094 -37.77235794067383 120.67828369140625
-25.762725830078125 69.21990203857422 -16.604299545288086
-34.486297607421875 94.07422637939453 50.265811920166016
-23.834346771240234 47.89501190185547 -1.4928863048553467
-20.71399688720703 -43.603302001953125 94.76626586914062
-33.164268493652344 100.05677032470703 23.79283332824707
-20.286495208740234 -45.83154296875 90.69158935546875
-35.59820556640625 106.2271957397461 44.62862014770508
-35.73064422607422 105.71479034423828 47.54888916015625
-21.076499938964844 -45.893226623535156 99.01924133300781
-20.350116729736328 -47.00375747680664 92.83869934082031
-12.695975303649902 -48.16697311401367 27.929847717285156
-22.94305419921875 -39.33735275268555 113.07833862304688
-24.04492950439453 -40.53822326660156 118.425537109375
-32.70960998535156 91.1780014038086 28.760311126708984
-13.727660179138184 -58.99972152709961 48.563812255859375
-17.189823150634766 -52.059085845947266 72.28390502929688
-10.392302513122559 -68.32392120361328 29.611616134643555
-14.499809265136719 -61.562191009521484 62.694000244140625
-24.504817962646484 65.04058837890625 -16.84334945678711
-20.644508361816406 -41.1113395690918 96.83348083496094
-15.974822998046875 56.73135757446289 -82.00405883789062
-16.769725799560547 60.106056213378906 -79.14649963378906
-34.95330810546875 102.86698913574219 29.269432067871094
-12.819548606872559 -28.587860107421875 0.5887799263000488
-36.133811950683594 104.78942108154297 40.645484924316406
-16.336711883544922 -51.28730010986328 67.92594909667969
-22.384063720703125 45.33794403076172 -2.9207091331481934
-22.039180755615234 -41.1877326965332 106.37057495117188
-14.169547080993652 -59.895381927490234 55.31543731689453
-3.5361852645874023 -90.61194610595703 -0.3801603317260742
-12.512701988220215 -62.186038970947266 42.35851287841797
-12.425375938415527 44.63277816772461 -83.98939514160156
-22.60016632080078 -37.307838439941406 103.12451171875
-12.750365257263184 -48.43310546875 32.4996452331543
-12.856314659118652 -57.73770523071289 43.80888366699219
-17.515518188476562 63.18653106689453 -69.36190795898438
-23.339519500732422 -33.58841323852539 109.57345581054688
-22.332244873046875 69.99934387207031 -41.61260986328125
-10.190268516540527 11.74830150604248 -71.02490234375
-12.225485801696777 -49.44198989868164 23.443387985229492
-31.153141021728516 95.72225952148438 11.471758842468262
-0.7247917652130127 -91.6904525756836 -22.944477081298828
-23.0828857421875 -29.201610565185547 112.18440246582031
-33.883026123046875 92.00721740722656 46.79078674316406
-28.858306884765625 82.8819351196289 6.6501545906066895
-1.6778709888458252 -93.24858856201172 -15.863258361816406
-6.63938045501709 -27.623332977294922 -55.19859313964844
-34.113433837890625 96.00321960449219 40.288204193115234
-22.623638153076172 -37.19968032836914 107.82330322265625
-33.71137237548828 96.5301284790039 38.04827880859375
-27.77861785888672 88.223388671875 -7.266810417175293
-34.54212951660156 93.27289581298828 48.49616241455078
-13.34183406829834 52.54436111450195 -86.90055847167969
-9.104689598083496 -50.856754302978516 21.99533462524414
-14.99188232421875 -54.20090866088867 57.98370361328125
-15.080970764160156 -53.9391975402832 68.27279663085938
-33.257781982421875 94.9551773071289 35.730960845947266
-13.83499813079834 -57.77024459838867 58.905784606933594
-27.6861572265625 80.37462615966797 4.707951545715332
-10.550688743591309 -62.199527740478516 36.005638122558594
-9.535460472106934 -65.223388671875 31.28905487060547
-19.165477752685547 36.94259262084961 -17.20050811767578
-13.774230003356934 -56.53097152709961 56.726593017578125
-20.09728240966797 38.08964157104492 -16.471071243286133
-21.80733871459961 65.64228820800781 -29.92106056213379
-32.057029724121094 96.01422119140625 51.72277069091797
-18.23806381225586 35.42856979370117 -16.449739456176758
-10.441420555114746 -37.064308166503906 0.2985020875930786
-22.45413589477539 62.50271987915039 -23.4664249420166
-4.468993186950684 -42.516151428222656 -53.013160705566406
-20.048343658447266 67.49693298339844 -53.958518981933594
-25.056964874267578 76.37925720214844 -13.151805877685547
-21.608314514160156 42.79570388793945 -6.391407012939453
-17.516124725341797 66.40113830566406 -62.34525680541992
-8.580565452575684 -72.24051666259766 25.177309036254883
-14.289557456970215 -55.76570510864258 60.397525787353516
-24.156784057617188 -22.620784759521484 119.1781005859375
-22.233253479003906 -40.30585861206055 116.09828186035156
-4.578566551208496 -36.34116744995117 -53.81325912475586
-24.408775329589844 63.5793571472168 1.5104303359985352
-14.705940246582031 -53.5607795715332 63.26286697387695
-28.93488311767578 85.0330581665039 11.87985610961914
-23.8125 -35.47412109375 120.56678771972656
-32.37921905517578 92.37853240966797 33.09288024902344
-14.225455284118652 -54.987552642822266 57.08138656616211
-23.392898559570312 56.91680908203125 0.291162371635437
-12.858786582946777 -57.18265914916992 49.55351638793945
-11.344267845153809 -56.27150344848633 38.24293899536133
-11.646552085876465 -50.36115264892578 36.28227996826172
-4.945250511169434 -83.50384521484375 13.425847053527832
-28.523197174072266 94.15723419189453 1.2925697565078735
-20.63327407836914 -40.59132766723633 102.8505859375
-22.563617706298828 52.6654167175293 0.3959936499595642
-13.11276912689209 61.16679382324219 -91.80632019042969
-22.30532455444336 -35.25349807739258 111.41998291015625
-12.013083457946777 49.55674743652344 -88.09490966796875
-13.867415428161621 -55.26785659790039 62.67573928833008
-19.956192016601562 -43.494041442871094 103.00973510742188
-23.50467300415039 -35.90662384033203 121.6263427734375
-9.585799217224121 27.079317092895508 -78.66384887695312
-20.062782287597656 69.84354400634766 -48.283485412597656
-6.653975486755371 -19.866756439208984 -57.918312072753906
-10.76456356048584 -60.22555160522461 36.874603271484375
-15.534759521484375 -52.24538040161133 68.63603210449219
-22.7161865234375 -40.56621551513672 118.23851013183594
-19.59241485595703 -42.19949722290039 99.94989013671875
-31.25244140625 91.66454315185547 27.99875259399414
-21.828475952148438 48.88307571411133 -0.21973752975463867
-23.001541137695312 69.65153503417969 -15.531087875366211
-21.593505859375 69.73151397705078 -35.605098724365234
-22.77215576171875 -29.94652557373047 113.19114685058594
-21.96981430053711 -32.170440673828125 111.98271179199219
-34.60614776611328 104.60417175292969 40.238487243652344
-33.524864196777344 103.61624908447266 30.83135414123535
-12.06168270111084 -52.976261138916016 43.93757629394531
-26.868511199951172 83.13200378417969 6.675950527191162
-29.66577911376953 87.97835540771484 18.129194259643555
-9.073050498962402 -40.57511520385742 1.2871265411376953
-25.846832275390625 75.84833526611328 3.3406431674957275
-22.53710174560547 64.77497863769531 -16.443294525146484
-22.460643768310547 -36.88045883178711 121.16853332519531
-6.061179161071777 -77.89049530029297 19.883705139160156
-7.98087215423584 0.4116055965423584 -65.78282165527344
-27.589385986328125 92.80267333984375 -2.612484931945801
-25.753662109375 84.27410125732422 -8.44603157043457
-13.746901512145996 55.80567932128906 -87.73023986816406
-9.800429344177246 -44.8305549621582 9.447826385498047
-1.5160667896270752 -91.09566497802734 -1.6289420127868652
-1.3828651905059814 -55.45833969116211 -54.51152420043945
-8.063948631286621 7.060009002685547 -69.59083557128906
-21.402435302734375 -35.605796813964844 113.73033142089844
-0.5703575611114502 -61.58259201049805 -53.67652893066406
-20.888565063476562 66.08757781982422 -28.983016967773438
-31.40874481201172 94.87373352050781 43.341129302978516
-9.267386436462402 -51.80415725708008 25.774028778076172
-22.722301483154297 60.94770050048828 0.627698540687561
-22.443267822265625 -32.39236831665039 120.23234558105469
-6.418334007263184 -15.258935928344727 -59.85568618774414
-29.89032745361328 95.61032104492188 11.05356216430664
-8.311392784118652 16.11709976196289 -74.96595764160156
-31.302188873291016 100.39091491699219 25.1673583984375
-20.790393829345703 63.94688034057617 -21.844219207763672
-11.40103816986084 -54.619998931884766 41.98126983642578
-19.064899444580078 23.86888885498047 -12.164420127868652
-33.677894592285156 106.79060363769531 56.64076232910156
-7.836256980895996 30.626630783081055 -82.127685546875
-32.12860870361328 92.44898986816406 48.33610534667969
-29.521759033203125 90.55367279052734 18.838563919067383
-30.76305389404297 93.75395202636719 26.75018310546875
-31.06698989868164 93.38655090332031 31.31112289428711
-21.294628143310547 62.764923095703125 -18.18756675720215
-15.356704711914062 17.9816837310791 -5.107962608337402
-15.75222396850586 67.25646209716797 -76.59455871582031
-9.626791954040527 40.36442565917969 -85.05754089355469
-21.71334457397461 -37.63740921020508 117.30361938476562
0.595574140548706 -68.8530502319336 -50.8690185546875
-6.733016014099121 -72.36363983154297 24.466720581054688
-31.491844177246094 102.00985717773438 28.038116455078125
-9.691214561462402 -50.843101501464844 28.764392852783203
-27.451370239257812 85.93779754638672 10.225342750549316
-7.407164573669434 -67.3055191040039 27.132638931274414
-7.695303916931152 -63.23211669921875 28.980674743652344
-21.42646026611328 62.71137619018555 -19.653532028198242
-18.354450225830078 117.50540161132812 -120.42660522460938
-32.878929138183594 96.05431365966797 36.523738861083984
-30.97415542602539 94.28022766113281 34.72466278076172
-9.840506553649902 -56.1202507019043 34.2546272277832
-18.170063018798828 115.55123138427734 -118.30223083496094
-22.879783630371094 -26.19968032836914 119.767822265625
-21.36617660522461 -37.96277618408203 116.81700134277344
-31.08797836303711 96.10655212402344 51.528560638427734
-17.400493621826172 112.45952606201172 -116.63983154296875
1.368431806564331 -74.80379486083984 -47.433616638183594
-24.263813018798828 87.25896453857422 -6.311788082122803
-21.606857299804688 -32.75750732421875 114.7113037109375
-28.062278747558594 94.41127014160156 7.6198225021362305
-28.87527084350586 95.2537841796875 11.828311920166016
-16.97791290283203 111.4247055053711 -117.31660461425781
-18.309463500976562 68.96745300292969 -53.51093292236328
-9.756285667419434 -51.7690315246582 33.149112701416016
-22.731159210205078 67.30223083496094 1.588590383529663
-27.461898803710938 91.10423278808594 12.549065589904785
-31.444759368896484 98.01459503173828 38.94147872924805
-1.2370522022247314 -50.6987419128418 -53.863224029541016
-21.249011993408203 -33.401123046875 114.56138610839844
-13.747954368591309 68.10916900634766 -87.73464965820312
-22.574413299560547 -24.31452178955078 119.8192138671875
-23.01009750366211 74.6579360961914 -12.152081489562988
-32.728538513183594 103.7118911743164 38.71364974975586
-22.315975189208984 -33.030006408691406 121.23411560058594
-1.1116554737091064 -89.36115264892578 2.824899435043335
-32.029335021972656 96.5473861694336 40.77564239501953
-30.794784545898438 95.04164123535156 30.234460830688477
-16.03396987915039 67.81196594238281 -65.87588500976562
-6.860716819763184 -50.96780776977539 18.763381958007812
-6.01657772064209 -10.444916725158691 -61.5986442565918
-31.48367691040039 103.19300079345703 33.209014892578125
-13.841872215270996 -5.712492942810059 2.1502764225006104
1.8260276317596436 -78.9477310180664 -44.76266860961914
-14.667564392089844 6.643588066101074 -0.7826817035675049
-32.997779846191406 105.05101776123047 43.90179443359375
-19.67192840576172 70.8226318359375 -39.608516693115234
-17.618896484375 123.5692138671875 -123.65017700195312
2.9731833934783936 -90.38752746582031 -28.36578941345215
-30.395214080810547 93.90086364746094 51.006065368652344
-16.279888153076172 111.23979187011719 -119.33763122558594
-28.447067260742188 93.04461669921875 17.431861877441406
-19.281299591064453 69.62765502929688 -33.98468780517578
-12.419539451599121 -11.775895118713379 3.136033535003662
-21.12447738647461 -32.37052536010742 118.37747192382812
-21.535724639892578 -32.72252655029297 121.18386840820312
-19.611988067626953 63.216705322265625 -15.25076675415039
-9.666289329528809 -53.80000686645508 35.1009521484375
-19.35198974609375 43.34906768798828 -5.424281120300293
-33.76338195800781 107.69226837158203 56.874942779541016
-30.925281524658203 93.29796600341797 44.566856384277344
-20.159988403320312 46.561397552490234 -1.8761332035064697
-26.186527252197266 93.5629653930664 3.2700109481811523
-15.0255126953125 13.544464111328125 -3.052022933959961
-10.752486228942871 59.65250778198242 -96.756591796875
-7.898138999938965 -48.28886795043945 14.280535697937012
-24.060855865478516 82.09733581542969 -7.736832618713379
-31.011337280273438 98.22183990478516 36.206626892089844
-16.53539276123047 68.22160339355469 -60.52400588989258
-2.9157705307006836 -81.62297821044922 15.070448875427246
-15.564163208007812 111.43052673339844 -120.376220703125
-24.94485855102539 85.17424774169922 5.5292158126831055
-11.401373863220215 -17.127155303955078 3.117170810699463
-28.971031188964844 96.1572036743164 19.647018432617188
-18.3553466796875 110.8701400756836 -100.02255249023438
-27.067310333251953 92.56730651855469 9.008502960205078
-23.342578887939453 78.27098083496094 -8.979462623596191
-25.639217376708984 82.82463836669922 5.538453578948975
-7.153807640075684 -62.126834869384766 29.55186653137207
-16.89696502685547 120.77507019042969 -122.30148315429688
-19.33169174194336 68.5239028930664 -29.48330307006836
-21.496318817138672 -27.511363983154297 119.74037170410156
-0.637397050857544 -47.131404876708984 -53.93056869506836
-32.89356994628906 104.89584350585938 47.79576873779297
-29.93149185180664 96.67029571533203 27.076536178588867
-29.751449584960938 98.70860290527344 26.29044532775879
-16.316936492919922 113.80681610107422 -118.56208801269531
-8.142447471618652 -53.58583450317383 29.127565383911133
-14.557632446289062 70.66044616699219 -78.73200988769531
-17.866100311279297 109.87173461914062 -102.62104797363281
-19.820369720458984 63.58132553100586 -20.12422752380371
-15.480396270751953 39.935428619384766 -13.59918212890625
-0.4984428882598877 -86.81609344482422 7.527700901031494
-20.761333465576172 58.11305618286133 -0.3953646421432495
-6.462004661560059 -59.998653411865234 28.346782684326172
-18.23316192626953 112.03457641601562 -100.94953918457031
-32.36949920654297 105.17546081542969 46.719303131103516
-9.697737693786621 -21.276866912841797 2.6360678672790527
-24.06142807006836 77.8071517944336 2.3462014198303223
-17.714603424072266 112.99887084960938 -98.90469360351562
-5.039931297302246 0.04973864555358887 -67.01715087890625
1.3919532299041748 -93.07289123535156 -8.01636028289795
-16.836727142333984 106.20228576660156 -101.34854125976562
3.437790632247925 -87.07167053222656 -37.352256774902344
-31.071044921875 101.22228240966797 36.90823745727539
-11.319563865661621 66.8503646850586 -97.04852294921875
-15.901962280273438 95.3077621459961 -99.47251892089844
-17.72635269165039 112.64088439941406 -102.12814331054688
-3.8242788314819336 -77.24542999267578 19.312395095825195
-16.9647216796875 118.49555969238281 -121.78178405761719
-16.927108764648438 98.74288940429688 -93.1685791015625
-19.493152618408203 62.24442672729492 -17.242956161499023
-17.394508361816406 112.7098388671875 -103.56497192382812
-5.060431480407715 15.486957550048828 -77.76336669921875
-17.552291870117188 108.4399642944336 -100.79393005371094
-14.35064697265625 111.90308380126953 -120.94529724121094
6.164231300354004 -86.26075744628906 -38.5827751159668
-6.497298240661621 9.561371803283691 -72.2833251953125
-15.452571868896484 91.9388427734375 -97.19374084472656
-13.356505393981934 73.63980102539062 -86.81661987304688
-16.825786590576172 107.881103515625 -104.25645446777344
-9.007132530212402 -28.641429901123047 1.1919410228729248
-30.251068115234375 101.41094970703125 29.3016357421875
-29.36870574951172 98.3869857788086 30.113779067993164
-9.952902793884277 56.671688079833984 -95.97796630859375
-29.45339584350586 96.8361587524414 32.1702880859375
-19.427459716796875 50.992835998535156 -0.05919349193572998
-17.507614135742188 108.66353607177734 -98.85012817382812
-30.618297576904297 97.5530014038086 42.09978485107422
-6.344756126403809 -56.705989837646484 27.08814239501953
-26.339885711669922 90.0485610961914 9.148192405700684
-31.181804656982422 101.33768463134766 41.35432434082031
-15.783950805664062 31.265323638916016 -11.537485122680664
1.3266150951385498 -91.4095230102539 -0.7976531982421875
-25.297767639160156 91.81291961669922 -2.5264837741851807
