NOTE openvision4
VERSION .7
FIELDS x y z
TYPE F F F
COUNT 1 1 1
WIDTH 850
HEIGHT 1
VIEWPOINT 0 0 0 1 0 0 0
POINTS 850
DATA ascii
-5.025636196136475 15.178121566772461 51.683021545410156
-4.716957092285156 55.846031188964844 -48.302242279052734
-5.1101603507995605 7.080682754516602 1.14210844039917
-4.595860481262207 56.757713317871094 -49.76070785522461
-5.110574722290039 0.4815025329589844 2.188647747039795
-4.3915228843688965 64.18415832519531 -52.779781341552734
-5.085834980010986 -1.262298583984375 2.6267504692077637
-5.072734832763672 -8.732498168945312 -4.666248798370361
-4.7489800453186035 61.810218811035156 -47.28786849975586
-4.802320957183838 63.02549743652344 -55.22755813598633
-4.837560653686523 17.84208106994629 54.331661224365234
-4.400225639343262 44.57892608642578 -35.897457122802734
-4.278879165649414 13.247289657592773 49.00904083251953
-5.233818531036377 63.82470703125 -54.92501449584961
-4.592382907867432 38.239219665527344 -25.363414764404297
-3.7166476249694824 -1.266733169555664 -18.662433624267578
-4.022132873535156 -9.105437278747559 -11.425145149230957
-4.914546966552734 10.691343307495117 -0.4216504395008087
-5.161319732666016 17.620481491088867 0.4444079101085663
-4.8660664558410645 1.2592964172363281 3.513331890106201
-4.891994953155518 12.451803207397461 0.40335413813591003
-3.9344863891601562 19.90915870666504 53.48670196533203
-4.235708236694336 19.356760025024414 54.53022384643555
-4.045197486877441 64.26433563232422 -55.64541244506836
-4.413905620574951 62.94343566894531 -55.88032150268555
-4.5019025802612305 57.34651184082031 -48.56674575805664
-4.737905502319336 3.6896305084228516 3.0683703422546387
-3.6672000885009766 36.306976318359375 -52.20943069458008
-4.473545551300049 64.25862884521484 -64.65978240966797
-4.159990310668945 43.64850616455078 -33.84494400024414
-4.426884651184082 16.573652267456055 53.09074020385742
-3.9679784774780273 7.630353927612305 3.9522433280944824
-3.3785226345062256 62.72631072998047 -48.3680305480957
-4.638508319854736 21.590173721313477 2.4721102714538574
-4.734923839569092 16.45319175720215 -4.73508882522583
-4.668442249298096 51.607994079589844 -42.089168548583984
-3.8591654300689697 1.3716964721679688 4.45558500289917
-4.685364723205566 17.837800979614258 -5.597546100616455
-4.3901214599609375 14.960790634155273 48.488582611083984
-3.761319875717163 -6.803555488586426 -14.88769245147705
-3.7714695930480957 47.862701416015625 -52.567256927490234
-5.1035003662109375 59.41990661621094 -67.47640228271484
-3.42026948928833 3.021272659301758 5.556075572967529
-2.8210718631744385 2.8401241302490234 -21.82534408569336
-4.086126327514648 47.0772705078125 -40.51948928833008
-4.637635231018066 -4.148597717285156 1.81184720993042
-4.449902534484863 13.58165168762207 51.29489517211914
-2.903873920440674 63.06725311279297 -50.52853775024414
-3.584137201309204 59.80207824707031 -51.8709831237793
-4.586814880371094 24.906301498413086 1.0481524467468262
-4.501172065734863 5.050359725952148 3.659118175506592
-4.6539154052734375 56.97898864746094 -48.002986907958984
-4.535315036773682 19.48110008239746 -5.673450946807861
-3.9496660232543945 17.93692970275879 54.36135482788086
-4.267652988433838 15.528974533081055 52.45840835571289
-4.495305061340332 9.039701461791992 2.64595365524292
-3.9822378158569336 14.417856216430664 52.405208587646484
-4.484185218811035 14.258001327514648 -3.9217495918273926
-4.340518474578857 44.694053649902344 -38.814876556396484
-4.049073219299316 4.428922653198242 5.917632579803467
-3.6521096229553223 16.282285690307617 49.582611083984375
-4.077382564544678 62.72772979736328 -45.0371208190918
-4.23912239074707 53.90978240966797 -43.5494270324707
-4.425374984741211 -9.516998291015625 -8.30724811553955
-4.181796073913574 -0.06868553161621094 2.542476177215576
-4.313045501708984 6.228404998779297 2.810023784637451
-4.162452697753906 42.024742126464844 -30.370731353759766
-4.331171035766602 49.09381866455078 -41.22788619995117
-4.324254989624023 12.468389511108398 -1.1237072944641113
-4.311784744262695 -2.254497528076172 3.319850444793701
-4.207779407501221 26.43756675720215 -0.5299649238586426
-3.9431450366973877 46.94886016845703 -55.93612289428711
-4.258241653442383 21.698705673217773 -4.752514362335205
-4.127746105194092 4.610944747924805 4.481410503387451
-4.142637252807617 11.576211929321289 0.4541735351085663
-3.970629930496216 29.265478134155273 -49.062198638916016
-3.730576515197754 52.27793884277344 -67.2912826538086
-3.710092067718506 5.181127548217773 -25.207996368408203
-3.5216948986053467 45.392059326171875 -38.42485427856445
-3.7000770568847656 62.70011901855469 -49.86221694946289
-2.6005632877349854 65.19120025634766 -58.534183502197266
-3.3709757328033447 34.147186279296875 -51.97947311401367
-3.0940303802490234 64.02162170410156 -54.71542739868164
-4.115964889526367 11.73390007019043 0.009952038526535034
-3.4299139976501465 15.534440994262695 -36.27128219604492
-4.7254815101623535 63.145469665527344 -46.55600357055664
-3.322345018386841 -8.237281799316406 -13.585965156555176
-3.7718334197998047 62.47565460205078 -48.4267463684082
-4.054985046386719 7.669101715087891 2.8951525688171387
-2.504801034927368 24.87443733215332 -46.08254623413086
-3.718648910522461 62.78752136230469 -55.08732986450195
-3.839719295501709 63.053627014160156 -56.13327407836914
-3.844843864440918 0.3626384735107422 4.641055583953857
-2.301520824432373 34.451019287109375 -22.29116439819336
-3.9635210037231445 14.921354293823242 -5.093929767608643
-3.9340450763702393 13.644403457641602 -2.1099514961242676
-3.5996572971343994 8.237226486206055 3.1488375663757324
-4.389774322509766 57.49987030029297 -45.30044174194336
-3.134899139404297 65.64764404296875 -57.105167388916016
-3.3053343296051025 30.106706619262695 3.2965426445007324
-3.101590394973755 16.700944900512695 50.517757415771484
-3.619192361831665 12.300313949584961 49.45945358276367
-2.7974863052368164 39.10224914550781 -25.588802337646484
-2.350111961364746 32.32097625732422 -20.69454574584961
-3.788754940032959 2.0890026092529297 3.769652843475342
-3.369933843612671 14.255609512329102 3.2298617362976074
-3.7802250385284424 -7.870697975158691 -1.3678479194641113
-3.6072399616241455 46.56996154785156 -40.00448989868164
-2.9547362327575684 49.44989013671875 -42.652645111083984
-3.5356595516204834 28.49785041809082 4.069308757781982
-3.680879831314087 16.558988571166992 3.9310145378112793
-3.580564260482788 13.622262954711914 1.7171282768249512
-3.646087884902954 17.066720962524414 -7.100643634796143
-1.5160212516784668 37.32422637939453 -23.731090545654297
-3.7098751068115234 19.326601028442383 4.497649669647217
-3.5101678371429443 13.157995223999023 51.39569854736328
-3.3514726161956787 18.111989974975586 -7.925800800323486
-2.6489410400390625 63.985198974609375 -55.73820877075195
-2.9199202060699463 16.044851303100586 -6.142429828643799
-2.630497932434082 12.614057540893555 -33.04958724975586
-2.6409215927124023 61.39385223388672 -46.48923110961914
-3.64951491355896 26.4856014251709 -2.1749463081359863
-3.486891508102417 4.7594146728515625 4.103621959686279
-3.2417891025543213 60.45600128173828 -48.954097747802734
-3.2756261825561523 18.742834091186523 52.959632873535156
-3.4548919200897217 32.158485412597656 -51.06418991088867
-2.3410463333129883 15.541845321655273 46.77216339111328
-3.560615062713623 14.49370002746582 -2.932346820831299
-3.2412614822387695 18.88606834411621 54.165401458740234
-3.4332165718078613 59.20744323730469 -50.73128890991211
-2.4201319217681885 12.918054580688477 45.51607131958008
-2.768723487854004 6.365406036376953 4.130774974822998
-3.4612700939178467 24.52338218688965 5.121505260467529
-2.673569917678833 10.481107711791992 -30.569805145263672
-2.8276710510253906 63.69904327392578 -54.14873123168945
-3.8598644733428955 18.114809036254883 51.52417755126953
-2.248741626739502 54.98236846923828 -46.82358932495117
-2.2401790618896484 40.592063903808594 -27.23311996459961
-2.2046399116516113 29.156198501586914 -49.73582077026367
-2.2351858615875244 15.616350173950195 53.22034454345703
-2.0452752113342285 0.26017189025878906 -19.82895278930664
-3.3940703868865967 18.480478286743164 -7.125797748565674
-3.112776041030884 4.1107025146484375 5.316283702850342
-3.01517653465271 62.92762756347656 -56.31907272338867
-2.3916969299316406 36.725738525390625 -52.84787368774414
-3.367386817932129 15.434377670288086 -6.358143329620361
-2.84668231010437 50.66358184814453 -43.934810638427734
-2.586960792541504 48.15796661376953 -53.735965728759766
-2.525670051574707 64.2774429321289 -56.08586502075195
-2.9868223667144775 63.70356750488281 -64.29290008544922
-2.930124044418335 10.402116775512695 3.7939982414245605
-3.055612325668335 11.585275650024414 -0.6986584663391113
-3.465226650238037 44.66615295410156 -36.66605758666992
-3.265885353088379 4.067895889282227 5.538375377655029
-2.887756109237671 62.9827880859375 -55.43135452270508
-3.058476448059082 65.17826843261719 -61.95882034301758
-3.1329426765441895 60.41309356689453 -50.65665054321289
-1.7834348678588867 35.8369140625 -22.986347198486328
-3.0249807834625244 61.006805419921875 -45.09987258911133
-2.4316787719726562 14.483156204223633 45.777339935302734
-2.4702301025390625 11.811140060424805 49.506500244140625
-2.262831926345825 55.25421905517578 -67.11980438232422
-2.0417580604553223 11.795492172241211 45.99605941772461
-2.6843793392181396 45.76390075683594 -51.22780227661133
-2.150324821472168 19.778841018676758 -10.819668769836426
-2.691307544708252 31.47425651550293 1.4333453178405762
-3.1437549591064453 6.120002746582031 4.205451488494873
-2.866071939468384 17.613035202026367 52.962257385253906
-3.0853350162506104 -5.236898422241211 2.454951763153076
-3.9486441612243652 66.0086898803711 -60.475833892822266
-3.022284984588623 13.756402969360352 -1.7428479194641113
-2.3719024658203125 45.21092987060547 -37.75654220581055
-2.4705440998077393 23.127233505249023 -6.363392353057861
-2.9425384998321533 6.891914367675781 5.462165355682373
-1.7450032234191895 53.3369140625 -46.332393646240234
-2.057481288909912 50.395545959472656 -65.3172836303711
-2.1022844314575195 -5.730485916137695 -16.352275848388672
-2.454936981201172 31.554922103881836 6.841258525848389
-2.504150152206421 34.50144958496094 5.548446178436279
-2.239661931991577 38.40808868408203 -52.75920486450195
-2.844895601272583 16.517831802368164 52.68738555908203
-2.658360481262207 33.615318298339844 3.9330973625183105
-2.017796516418457 28.679960250854492 -3.3932080268859863
-2.8538849353790283 -10.06099796295166 -6.563847064971924
-2.8485450744628906 28.38214683532715 -2.0352444648742676
-2.1302542686462402 23.585596084594727 -14.618664741516113
-2.6385319232940674 46.773902893066406 -40.62961196899414
-2.64951491355896 41.341957092285156 -51.95891189575195
-2.275158166885376 47.24195098876953 -60.150203704833984
-2.398254871368408 15.290010452270508 -7.096653461456299
-1.7514934539794922 43.02861785888672 -31.95914077758789
-2.630455732345581 9.087409973144531 4.880679607391357
-2.628464460372925 17.87260627746582 53.41828918457031
-2.3261160850524902 18.725427627563477 55.110252380371094
-2.514979362487793 16.745996475219727 -7.859936237335205
-2.5787880420684814 19.094633102416992 53.546112060546875
-2.6487550735473633 -3.0076980590820312 4.292651653289795
-2.22412109375 19.688539505004883 54.54972839355469
-3.028853178024292 61.75225830078125 -65.88802337646484
-2.5654122829437256 11.195734024047852 3.76173734664917
-2.2996997833251953 16.099878311157227 50.755699157714844
-3.028792142868042 59.510498046875 -66.73700714111328
-2.5900843143463135 31.52094841003418 -0.11586430668830872
-2.5562994480133057 35.653900146484375 3.1453890800476074
-2.6531591415405273 62.679710388183594 -48.9061164855957
-1.9383459091186523 33.740509033203125 -52.14705276489258
-1.3782048225402832 26.057355880737305 -16.470577239990234
-2.235322952270508 18.021848678588867 51.724395751953125
-2.450641393661499 7.17730712890625 -27.63058090209961
-2.5711207389831543 63.324867248535156 -55.67446517944336
-2.3331027030944824 48.3287353515625 -52.13241958618164
0.2932004928588867 3.7076263427734375 -23.413997650146484
-1.072359561920166 30.861906051635742 -19.95053482055664
-2.4550795555114746 37.20343780517578 2.477321147918701
-1.463432788848877 8.897150039672852 0.8591494560241699
-0.17265081405639648 58.30084991455078 -48.39834213256836
-1.0601091384887695 15.427335739135742 45.09149932861328
-2.3970959186553955 18.119478225708008 6.843642711639404
-2.3490850925445557 15.03160285949707 6.040351390838623
-0.7898964881896973 27.838830947875977 -18.315692901611328
-2.3224449157714844 -0.7985973358154297 5.4426493644714355
-1.7642459869384766 11.493619918823242 47.68611526489258
-2.2174792289733887 33.370765686035156 -0.7721219062805176
-0.8220529556274414 12.203439712524414 -2.6090283393859863
-1.7025165557861328 51.09258270263672 -45.042728424072266
-2.200632095336914 17.757360458374023 -7.83549165725708
-2.2600150108337402 25.6908016204834 7.077651500701904
-1.123706340789795 18.22173500061035 -9.207928657531738
-1.8816986083984375 14.689901351928711 -35.93306350708008
-2.033921718597412 38.00270080566406 6.656558513641357
-2.1772050857543945 5.877302169799805 3.4634509086608887
-1.9199213981628418 36.520530700683594 7.1940531730651855
-2.005955219268799 40.052345275878906 4.39308500289917
-1.452855110168457 47.25038146972656 -50.8165168762207
-2.1431751251220703 11.623903274536133 -0.37334874272346497
-1.5389671325683594 52.956016540527344 -66.22882843017578
-1.504488468170166 47.73419189453125 -55.988834381103516
-1.8053312301635742 18.14042854309082 -39.6898307800293
-2.009395122528076 2.0493831634521484 6.294673442840576
-1.563382625579834 62.3232421875 -63.791324615478516
-1.69456148147583 55.879188537597656 -47.5987663269043
-1.3604979515075684 48.455474853515625 -43.756771087646484
-1.3857951164245605 20.819475173950195 -43.17155838012695
-2.0325188636779785 38.4395751953125 1.3101840019226074
-1.9708847999572754 -8.94229793548584 -1.45695161819458
-1.9376449584960938 -9.701897621154785 -11.397747993469238
-1.739877700805664 28.8836727142334 7.875613689422607
-1.2763381004333496 -7.016162872314453 -15.495938301086426
-1.3501315116882324 15.353429794311523 -6.095524311065674
-0.5035715103149414 41.38819122314453 -28.232181549072266
-1.2711658477783203 47.65410614013672 -58.452266693115234
-1.1728429794311523 62.78923034667969 -55.85684585571289
-1.8264851570129395 13.334001541137695 -3.5903515815734863
-0.24926042556762695 56.870452880859375 -48.01242446899414
-1.4670076370239258 27.025808334350586 -48.811588287353516
-1.0900049209594727 48.46703338623047 -61.4982795715332
-1.0537023544311523 63.16339874267578 -61.18843460083008
-1.8716869354248047 48.9873046875 -63.62013626098633
-0.19787359237670898 43.693702697753906 -34.589969635009766
-1.486523151397705 18.75160789489746 52.328739166259766
-0.489626407623291 44.1622314453125 -36.902225494384766
-1.6120634078979492 40.15080261230469 6.2008585929870605
-0.825615406036377 19.658353805541992 -7.93247652053833
-0.8220334053039551 22.791479110717773 -45.062992095947266
-0.9555010795593262 13.568326950073242 51.7691535949707
-1.516530990600586 35.184486389160156 8.120944023132324
-0.3282594680786133 15.737104415893555 46.793739318847656
-1.4259943962097168 39.73694610595703 8.503424644470215
-1.6431140899658203 34.003440856933594 -1.833324909210205
-1.0896477699279785 44.97428894042969 -39.65510940551758
-1.4931459426879883 5.1082000732421875 6.72444486618042
-1.1339221000671387 46.8780517578125 -42.38796615600586
-1.3394861221313477 17.948511123657227 53.70839309692383
-1.2466316223144531 45.85597229003906 -50.68320083618164
-1.4076008796691895 42.028053283691406 3.128962993621826
-1.5650324821472168 64.31722259521484 -57.13413619995117
1.2971124649047852 5.063718795776367 -24.89023208618164
-1.345663070678711 39.48365020751953 0.10371729731559753
-1.1741890907287598 43.787925720214844 9.303912162780762
-0.8535337448120117 25.5755672454834 -6.399166584014893
-1.4272150993347168 14.33900260925293 -7.031345844268799
-1.362295150756836 27.80190086364746 -4.965847492218018
-1.3403615951538086 60.17961120605469 -65.1794204711914
-0.8623642921447754 -8.090227127075195 -14.332661628723145
-0.8717794418334961 30.875150680541992 -51.79463577270508
0.12955570220947266 -2.5236644744873047 -18.525035858154297
-0.6971473693847656 37.82714080810547 -53.14702224731445
-1.1251745223999023 49.351661682128906 -51.1115608215332
-1.0143003463745117 6.974159240722656 6.6845927238464355
-0.8335914611816406 54.558631896972656 -48.96854782104492
-1.035444736480713 45.65217590332031 9.229884147644043
-1.0474495887756348 19.297040939331055 54.36818313598633
-1.00068998336792 55.60496520996094 -66.01213836669922
-1.3582873344421387 63.136924743652344 -53.42977523803711
-0.10962438583374023 38.75732421875 -24.808223724365234
-0.24599742889404297 36.13653564453125 -53.23588180541992
-0.7236118316650391 9.257415771484375 -29.366046905517578
-0.8988785743713379 33.06169128417969 8.595870018005371
-1.9355497360229492 16.81837272644043 53.274742126464844
-0.6440281867980957 43.439979553222656 4.63234281539917
-1.1480751037597656 -10.472798347473145 -7.350552082061768
-1.1273550987243652 -6.232898712158203 2.644954204559326
-1.0758662223815918 10.96110725402832 43.04270553588867
-0.8135485649108887 24.78651237487793 -47.33549118041992
-0.7829198837280273 12.369562149047852 41.86043930053711
-1.7997856140136719 61.76127624511719 -49.106021881103516
-0.13580846786499023 50.33573913574219 -52.06789016723633
-0.19272327423095703 10.192216873168945 44.39708709716797
-1.2537012100219727 15.906518936157227 50.23533630371094
-1.0059504508972168 43.12925720214844 7.346038341522217
-0.4461841583251953 62.10301971435547 -58.8397102355957
-0.992246150970459 18.480871200561523 52.73373794555664
1.0610127449035645 0.21335220336914062 -20.096881866455078
-0.8322944641113281 42.82823181152344 1.6630206108093262
-0.8750481605529785 17.701642990112305 52.763980865478516
-0.30100440979003906 14.294469833374023 -8.23906421661377
-0.9802050590515137 19.995901107788086 8.557051658630371
-0.537071704864502 19.52727699279785 -11.67321491241455
-0.33821964263916016 61.715850830078125 -56.17253494262695
-0.4371976852416992 17.491331100463867 -39.224674224853516
-1.0357856750488281 18.78914451599121 54.47499084472656
-0.714207649230957 8.605636596679688 6.645450115203857
-0.8981351852416992 15.543703079223633 8.279051780700684
-0.8796854019165039 11.599409103393555 7.476974010467529
1.243422031402588 12.31031608581543 49.90925979614258
-0.8805551528930664 24.51140022277832 8.755850791931152
-0.5441818237304688 49.171104431152344 -48.18906021118164
-0.38457155227661133 46.196983337402344 -49.70890426635742
-0.20542144775390625 52.53144073486328 -48.40712356567383
-0.5996060371398926 18.116422653198242 53.79973220825195
-0.6553468704223633 45.10139465332031 9.8545560836792
0.3215055465698242 42.629302978515625 -31.25949478149414
-0.14035272598266602 55.254737854003906 -49.10420608520508
-0.6953887939453125 47.903160095214844 -48.62363052368164
-0.2523355484008789 60.2154541015625 -62.806583404541016
-0.9153556823730469 10.552804946899414 43.34414291381836
-0.33154726028442383 22.510438919067383 -15.07909870147705
-0.1371140480041504 59.37513732910156 -51.44501876831055
0.3202328681945801 13.542924880981445 40.04697799682617
-0.6828470230102539 16.983686447143555 51.73594665527344
-0.2676820755004883 41.114402770996094 -52.064510345458984
0.4569358825683594 43.039085388183594 -51.09090805053711
-0.4539775848388672 43.175987243652344 9.663176536560059
-0.13685083389282227 58.604576110839844 -63.61740493774414
-0.16859197616577148 27.120458602905273 -49.708248138427734
-0.6747450828552246 -3.8708972930908203 4.699351787567139
0.5533604621887207 1.7036705017089844 -21.355281829833984
-0.6525349617004395 27.18520164489746 8.69895076751709
-0.4727821350097656 15.027559280395508 -36.40595626831055
-0.3060612678527832 -9.500981330871582 -12.164410591125488
0.1148524284362793 9.429018020629883 39.48690414428711
-0.45417261123657227 61.73382568359375 -52.87881088256836
-0.5871448516845703 11.960100173950195 -3.138950824737549
-0.3917198181152344 48.405616760253906 -45.79905319213867
-0.8639388084411621 37.0009765625 8.730830192565918
-0.7374706268310547 10.244256973266602 -0.7849621772766113
-0.3351478576660156 47.698997497558594 -46.27949142456055
-0.2608962059020996 18.44755744934082 52.29332733154297
-0.2541508674621582 48.730873107910156 -57.598148345947266
-0.024910926818847656 45.093994140625 5.229236125946045
-0.32209205627441406 46.21842956542969 -48.9014778137207
-0.06250524520874023 52.822349548339844 -49.86099624633789
0.28814172744750977 16.254064559936523 53.615318298339844
-0.39404726028442383 12.372503280639648 -32.90314865112305
3.0095176696777344 14.205831527709961 -8.742474555969238
0.5070700645446777 14.60224723815918 41.134681701660156
-0.128326416015625 54.01653289794922 -50.95952224731445
-0.37911510467529297 -1.8485984802246094 5.823249340057373
-0.18530893325805664 29.672292709350586 8.899039268493652
0.37288570404052734 28.953508377075195 -51.090206146240234
-0.32371997833251953 18.566862106323242 55.258663177490234
-0.41821908950805664 33.73161315917969 -52.8317985534668
-0.1676311492919922 19.51274299621582 -42.0926628112793
0.7323379516601562 11.149774551391602 47.350704193115234
0.040355682373046875 45.92530822753906 -45.756404876708984
-0.24056434631347656 38.431304931640625 -1.94028902053833
-0.5219597816467285 50.88914489746094 -63.82527542114258
-0.20072078704833984 42.67848205566406 0.41659876704216003
0.14502382278442383 45.72724914550781 -47.300655364990234
-0.08490848541259766 45.75762939453125 -42.490421295166016
1.5231056213378906 16.862741470336914 -10.087498664855957
0.6457853317260742 -4.904426574707031 -16.937740325927734
-0.12602710723876953 49.271759033203125 -60.588260650634766
-0.1314983367919922 51.12464141845703 -49.37983322143555
0.5067944526672363 47.847862243652344 8.344080924987793
-0.04673576354980469 34.66094970703125 -22.582599639892578
-0.13965511322021484 13.186201095581055 -6.190250873565674
-0.1391749382019043 -9.676097869873047 -2.307346820831299
-0.027809619903564453 0.07012939453125 6.618960857391357
-0.008680343627929688 31.906591415405273 -4.586697101593018
0.3053903579711914 17.047468185424805 53.67167663574219
0.1703639030456543 44.58302307128906 2.8969836235046387
0.38939476013183594 57.529335021972656 -61.010257720947266
-0.13549041748046875 49.43113708496094 -54.37942123413086
0.24939346313476562 51.74784851074219 -51.02999496459961
0.3361821174621582 56.93421936035156 -49.42374038696289
-0.029006481170654297 54.21009063720703 -52.77189254760742
0.519859790802002 17.842164993286133 53.795501708984375
0.6369156837463379 18.97285270690918 53.45832824707031
0.3186159133911133 42.326316833496094 11.587695121765137
-0.1263871192932129 53.94446563720703 -64.4452133178711
0.38103532791137695 55.29051208496094 -51.7611198425293
0.3276195526123047 47.173828125 10.207137107849121
0.04900503158569336 30.580202102661133 16.08645248413086
0.5178060531616211 55.194244384765625 -55.87971878051758
0.1402606964111328 32.49884796142578 17.383705139160156
0.07897520065307617 28.09540367126465 17.784351348876953
1.250730037689209 16.43147850036621 51.02139663696289
0.9628877639770508 36.45098876953125 -23.162715911865234
0.34500980377197266 55.29975891113281 -53.368961334228516
0.1125650405883789 29.36500358581543 19.382850646972656
0.345095157623291 44.448150634765625 -40.51260757446289
2.112649917602539 15.87217903137207 48.842227935791016
-0.4905834197998047 19.437135696411133 54.35498809814453
0.34107398986816406 59.64348602294922 -55.012882232666016
0.21059179306030273 41.884422302246094 9.71689510345459
0.480804443359375 12.185937881469727 38.16787338256836
0.9186816215515137 44.17411804199219 -42.1280632019043
0.8927702903747559 40.929725646972656 -27.830684661865234
0.48369264602661133 50.3994140625 -60.1389045715332
0.5614938735961914 8.424217224121094 41.79261016845703
0.7092571258544922 30.569875717163086 -20.513263702392578
0.3830909729003906 50.14228820800781 -55.38276290893555
0.337460994720459 57.225440979003906 -53.59598922729492
0.3198380470275879 2.092264175415039 7.249511241912842
0.5935897827148438 55.318748474121094 -62.01340103149414
0.7757573127746582 41.59870147705078 -0.9447522163391113
3.233539581298828 15.126527786254883 -9.330830574035645
0.31824541091918945 46.62004852294922 6.24147367477417
0.37571001052856445 33.17890930175781 14.441729545593262
0.7982711791992188 6.574729919433594 -26.333301544189453
0.814307689666748 46.98765563964844 11.126570701599121
1.2153968811035156 46.57695770263672 2.864375591278076
0.3482842445373535 51.93061828613281 -62.55289077758789
0.649897575378418 44.162025451660156 1.44783353805542
0.5105032920837402 26.492780685424805 21.332523345947266
0.44441986083984375 25.63909339904785 19.78780746459961
2.4915809631347656 22.1729793548584 -45.08254623413086
0.7417111396789551 18.70868492126465 54.517677307128906
1.095390796661377 25.40723991394043 -48.53850173950195
0.7223577499389648 52.67247772216797 -54.33915328979492
0.6778326034545898 10.136968612670898 37.83860397338867
0.5262241363525391 11.606191635131836 34.87767028808594
0.4547247886657715 -10.37569808959961 -8.449749946594238
0.5535717010498047 13.003072738647461 36.5578498840332
0.500117301940918 54.60034942626953 -53.55961990356445
0.7625069618225098 55.85712432861328 -56.70247268676758
0.794487476348877 40.17247772216797 11.430853843688965
1.244058609008789 7.088857650756836 39.59120178222656
1.573462963104248 20.682336807250977 -15.420186042785645
0.22935962677001953 54.909263610839844 -55.5451545715332
1.92108154296875 33.711708068847656 -22.806026458740234
0.6831302642822266 41.276756286621094 9.64932918548584
0.732459545135498 4.377780914306641 7.624740123748779
0.8299088478088379 14.068857192993164 35.21059036254883
0.9817395210266113 43.9830322265625 -43.782283782958984
0.6914572715759277 10.856744766235352 36.88544464111328
0.7456469535827637 13.195539474487305 34.36328125
1.1080622673034668 13.278528213500977 -33.67287063598633
0.7435426712036133 51.421783447265625 -59.707881927490234
0.6549148559570312 18.74970054626465 9.653651237487793
0.9228534698486328 9.891866683959961 44.94931411743164
1.1441302299499512 53.84410095214844 -56.07429885864258
0.6878547668457031 14.115201950073242 9.103049278259277
0.6891698837280273 24.99042320251465 9.748827934265137
1.3200860023498535 43.17018127441406 12.962126731872559
0.9820022583007812 55.267852783203125 -54.32167434692383
0.836937427520752 7.243053436279297 7.9249186515808105
0.8277420997619629 55.57970428466797 -58.307979583740234
1.2841377258300781 38.90544891357422 -52.71208572387695
0.7348651885986328 -7.332697868347168 1.8682513236999512
0.926816463470459 38.514366149902344 9.542750358581543
0.8019118309020996 53.35893249511719 -56.747684478759766
0.9588794708251953 27.46497917175293 21.932327270507812
1.0723257064819336 11.96180534362793 48.86249542236328
1.0519556999206543 -7.34383487701416 -14.800541877746582
2.0012617111206055 43.36779022216797 -47.06156539916992
1.0232024192810059 54.80109405517578 -53.21311569213867
1.3043522834777832 49.563629150390625 9.430949211120605
1.1612544059753418 37.28022766113281 14.054247856140137
0.9058222770690918 54.0096435546875 -58.09064865112305
0.603722095489502 34.00642395019531 -53.03786087036133
3.6090517044067383 19.32499885559082 -16.147151947021484
0.9262280464172363 18.44207191467285 54.12240219116211
1.1079788208007812 14.279054641723633 36.89043426513672
0.8689651489257812 11.550302505493164 -3.5799527168273926
0.8801450729370117 30.229700088500977 20.432052612304688
1.0272374153137207 54.89788818359375 -56.68828201293945
1.41009521484375 39.148963928222656 10.172591209411621
0.9149751663208008 29.63250160217285 14.502650260925293
0.9442548751831055 27.08150291442871 16.31125259399414
1.4039793014526367 43.0479736328125 -0.11456730961799622
1.0434212684631348 17.811269760131836 54.63367462158203
1.0944108963012695 24.81208610534668 22.278079986572266
1.0510520935058594 17.437047958374023 52.17315673828125
1.6868081092834473 15.195886611938477 42.40388488769531
1.3167452812194824 12.241777420043945 33.585819244384766
1.2154440879821777 55.19822692871094 -55.704227447509766
1.404505729675293 43.515769958496094 -37.967098236083984
2.420353889465332 22.89994239807129 -8.234166145324707
1.5291337966918945 10.426908493041992 -29.837627410888672
1.0492596626281738 33.331520080566406 18.46396255493164
1.4687795639038086 16.692827224731445 53.67316818237305
1.3348450660705566 30.324899673461914 9.370219230651855
1.0804009437561035 37.05450439453125 -3.3852810859680176
1.153585433959961 37.90534210205078 11.550505638122559
1.4767327308654785 54.95783996582031 -59.56363296508789
2.085658073425293 12.612863540649414 -4.513576984405518
1.3274102210998535 40.49134063720703 12.929656028747559
1.5237507820129395 54.717185974121094 -55.19157791137695
1.4615049362182617 55.77934265136719 -58.255611419677734
1.6938281059265137 37.862037658691406 -24.247028350830078
1.2596435546875 33.697967529296875 11.974135398864746
1.067976951599121 26.936277389526367 -18.643909454345703
1.1630916595458984 39.418556213378906 12.666777610778809
1.477330207824707 53.397605895996094 -56.38339614868164
1.3499598503112793 14.602991104125977 39.07909393310547
1.2145323753356934 24.56804847717285 18.483501434326172
3.604452133178711 24.070688247680664 -47.93032455444336
1.1807851791381836 -5.847698211669922 3.458247661590576
2.721904754638672 43.06159210205078 -36.62642288208008
1.1668405532836914 54.23793029785156 -57.43533706665039
2.038137435913086 17.286211013793945 -38.9123649597168
1.7200722694396973 18.615522384643555 54.56264114379883
1.9569950103759766 12.184572219848633 -6.150364398956299
1.2771310806274414 19.541528701782227 -42.27045822143555
1.3073081970214844 53.48390197753906 -54.27889633178711
1.402811050415039 25.491548538208008 23.11685562133789
1.6139535903930664 -8.67911434173584 -12.932103157043457
1.5325326919555664 32.042625427246094 -5.578800678253174
1.7881393432617188 14.703649520874023 52.853172302246094
2.3917922973632812 14.641149520874023 39.4382438659668
1.3656525611877441 55.33445739746094 -58.06588363647461
1.423874855041504 -10.028697967529297 -3.72465181350708
1.4256958961486816 10.905778884887695 34.063350677490234
1.8580331802368164 49.982688903808594 6.380279064178467
1.7064018249511719 7.178253173828125 41.23898696899414
1.7134990692138672 54.92364501953125 -59.119144439697266
3.429388999938965 21.59145164489746 -17.747844696044922
2.0831222534179688 43.39593505859375 -49.49912643432617
2.466183662414551 28.435457229614258 -51.197208404541016
1.653754711151123 -3.774730682373047 5.139190196990967
1.5160064697265625 48.54412078857422 4.112010478973389
2.214078903198242 36.640380859375 9.769736289978027
2.097977638244629 30.70997428894043 -52.158626556396484
1.5716547966003418 52.46997833251953 -56.91132736206055
1.9981346130371094 38.727638244628906 9.427454948425293
1.7430181503295898 36.541831970214844 16.3760986328125
2.450662612915039 43.248817443847656 -48.48408126831055
1.9083261489868164 53.09088897705078 -55.07242202758789
2.070418357849121 53.31610870361328 -56.69089126586914
2.167935371398926 17.85460090637207 52.175689697265625
2.8665170669555664 36.660606384277344 -52.52211380004883
2.402181625366211 7.927248001098633 36.152225494384766
1.9040374755859375 43.1234130859375 -42.52426528930664
2.4941911697387695 -3.78057861328125 -17.28866195678711
2.010270118713379 50.26026916503906 11.025725364685059
2.851409912109375 39.627708435058594 -52.04855728149414
1.9051685333251953 45.69928741455078 1.04213285446167
3.113286018371582 12.40162467956543 -8.418950080871582
2.5702695846557617 13.661890029907227 31.82876205444336
2.252312660217285 15.24595832824707 45.31608581542969
2.608017921447754 42.779014587402344 -33.919429779052734
2.284884452819824 7.767353057861328 42.67608642578125
3.1415414810180664 38.81422424316406 -25.86849594116211
2.748046875 32.571754455566406 -52.93161392211914
2.606412887573242 19.874128341674805 25.18968963623047
2.296664237976074 23.108102798461914 25.268478393554688
1.6479582786560059 53.174591064453125 -59.19487380981445
1.893904685974121 38.233856201171875 15.090998649597168
2.6664199829101562 17.13731575012207 33.22362518310547
2.1242027282714844 41.69114685058594 14.041857719421387
2.101226806640625 17.679880142211914 54.65845489501953
0.7423882484436035 44.30432891845703 -38.65359878540039
2.3411598205566406 31.226037979125977 21.280048370361328
1.794877052307129 54.076560974121094 -58.54106521606445
1.9062252044677734 -9.981898307800293 -9.410649299621582
2.0994815826416016 52.66932678222656 -56.84062576293945
2.1047325134277344 52.35308074951172 -57.87974166870117
2.52392578125 15.786874771118164 36.55644226074219
1.9953880310058594 -1.3119258880615234 6.423022747039795
2.3429765701293945 18.25836753845215 53.88053512573242
2.789661407470703 12.261800765991211 -5.597713947296143
2.619002342224121 25.345365524291992 -49.08317184448242
3.8290634155273438 35.37455749511719 -4.361179828643799
2.225459098815918 53.602638244628906 -59.19742202758789
2.959599494934082 39.88746643066406 -2.0637173652648926
2.455918312072754 45.70404052734375 14.237395286560059
4.301761627197266 41.081626892089844 -30.84572982788086
2.371037483215332 49.54847717285156 12.512076377868652
2.9047107696533203 34.618438720703125 19.26622772216797
2.5043773651123047 34.02142333984375 -52.938777923583984
2.1498212814331055 48.59520721435547 3.078120708465576
2.608419418334961 6.1787109375 36.82060623168945
2.6690473556518555 16.18979835510254 53.22963333129883
2.2131261825561523 10.529928207397461 9.066821098327637
2.810220718383789 16.419004440307617 51.14552688598633
2.5272388458251953 16.264814376831055 31.90250015258789
2.2066450119018555 29.02650260925293 13.129752159118652
2.2782087326049805 25.29598045349121 10.169737815856934
2.3794097900390625 34.257911682128906 10.003897666931152
2.7666873931884766 4.482450485229492 37.25588607788086
2.5534162521362305 10.883901596069336 47.09236145019531
2.281566619873047 21.872785568237305 25.263404846191406
2.7661008834838867 51.33580780029297 8.466425895690918
2.35347843170166 1.13043212890625 7.31532621383667
2.3010549545288086 -8.626097679138184 -0.20254948735237122
3.494081497192383 17.76545524597168 -13.535626411437988
3.8138303756713867 22.296091079711914 -45.057430267333984
2.3065452575683594 26.43760108947754 14.981051445007324
2.344784736633301 18.08470344543457 10.13645076751709
4.251399040222168 40.192283630371094 -51.059383392333984
2.339280128479004 6.49128532409668 8.263598442077637
3.6190052032470703 3.512075424194336 -22.654407501220703
3.213761329650879 42.4356689453125 -44.0135383605957
2.8221359252929688 42.93518829345703 -0.7410016059875488
2.995431900024414 3.7328357696533203 38.04957962036133
2.5499000549316406 2.9149856567382812 7.702914714813232
2.827151298522949 38.71022033691406 8.727961540222168
2.5316200256347656 23.977460861206055 17.214725494384766
2.615079879760742 1.2053871154785156 -20.403850555419922
3.4399471282958984 43.34471893310547 16.040111541748047
3.547327995300293 42.18707275390625 -40.45917892456055
3.092287063598633 8.502912521362305 34.72846221923828
2.5150632858276367 17.064146041870117 53.9554443359375
3.7177019119262695 -6.788595199584961 -14.377720832824707
3.5804643630981445 29.150419235229492 -21.781940460205078
3.3262710571289062 11.905378341674805 49.3096923828125
3.9443302154541016 14.576013565063477 53.02604675292969
2.7921018600463867 50.75236511230469 5.897159099578857
2.636018753051758 27.565858840942383 23.9072265625
3.5275049209594727 24.978239059448242 26.92355728149414
3.149195671081543 18.57118797302246 25.08458709716797
2.7314348220825195 17.07591438293457 52.96951675415039
2.7404050827026367 -10.021798133850098 -5.248447895050049
2.8387069702148438 20.18134117126465 27.80609893798828
3.0154924392700195 14.760526657104492 30.627685546875
2.962822914123535 -6.999789237976074 2.020198345184326
3.3655309677124023 17.395597457885742 53.94661331176758
3.259309768676758 12.546175003051758 -5.893681049346924
4.681358337402344 26.872629165649414 -21.712406158447266
4.728592872619629 41.111717224121094 -48.44852828979492
3.0823678970336914 22.016359329223633 19.493709564208984
2.939417839050293 17.090261459350586 28.43029022216797
3.4339494705200195 14.821966171264648 41.01036071777344
2.8984451293945312 18.407102584838867 30.123451232910156
3.2065486907958984 46.311309814453125 0.7058749198913574
3.628931999206543 23.957876205444336 -19.01938247680664
3.3673906326293945 17.4955997467041 34.45935821533203
3.453782081604004 3.450002670288086 38.68033981323242
3.004335403442383 -9.354997634887695 -10.465847969055176
3.026395797729492 9.843626022338867 -28.568485260009766
3.0859603881835938 29.40254783630371 -52.261722564697266
3.0293054580688477 11.379327774047852 -30.02237319946289
3.6023082733154297 32.72889709472656 -23.370250701904297
3.9975204467773438 6.9230499267578125 42.75254440307617
3.681340217590332 16.297990798950195 54.195831298828125
3.2473106384277344 19.929555892944336 -41.96590042114258
3.563277244567871 17.359193801879883 52.51488494873047
3.545337677001953 6.375816345214844 -25.304676055908203
3.155461311340332 13.111627578735352 -32.07844161987305
3.477865219116211 51.64122009277344 10.342795372009277
2.875926971435547 31.657339096069336 -6.03574800491333
3.27371883392334 16.273157119750977 51.680381774902344
2.933548927307129 42.829063415527344 -41.0528450012207
3.2410449981689453 19.17140007019043 31.250751495361328
3.8157167434692383 27.103418350219727 -50.864253997802734
4.094991683959961 10.457670211791992 47.48616027832031
4.216907501220703 14.757768630981445 38.73902893066406
4.022058486938477 9.345636367797852 8.917609214782715
3.8184690475463867 11.83928108215332 9.207320213317871
3.981289863586426 46.795013427734375 15.495169639587402
4.747746467590332 34.70685577392578 9.84601879119873
4.038804054260254 51.13347625732422 12.166625022888184
3.821544647216797 -9.425782203674316 -3.1473889350891113
4.115232467651367 25.310556411743164 10.275176048278809
4.2558135986328125 16.03511619567871 50.80299758911133
4.184846878051758 15.778070449829102 53.265010833740234
4.067256927490234 17.88591194152832 24.06032943725586
3.8821964263916016 35.154624938964844 8.5493803024292
3.6429548263549805 11.194059371948242 32.280147552490234
4.015894889831543 4.472454071044922 8.014815330505371
3.5616397857666016 -4.295066833496094 4.426814556121826
3.5176849365234375 18.005701065063477 10.148650169372559
3.619807243347168 32.76068115234375 9.892600059509277
3.348834991455078 16.056360244750977 -36.65958786010742
5.506748199462891 37.087890625 -25.237926483154297
3.5911245346069336 21.282800674438477 29.42905044555664
3.8918018341064453 35.634498596191406 -23.686992645263672
3.636505126953125 48.82886505126953 2.396045207977295
3.9980430603027344 28.704675674438477 -52.1604118347168
3.704946517944336 27.146364212036133 13.340289115905762
4.361477851867676 39.64292907714844 -28.126766204833984
3.7420244216918945 13.807516098022461 29.660072326660156
3.785085678100586 39.42512512207031 17.496681213378906
3.717205047607422 -9.734498023986816 -6.869045734405518
4.033173561096191 15.482961654663086 37.19352340698242
4.187711715698242 49.42192077636719 14.094878196716309
4.525664329528809 -2.402721405029297 -17.395587921142578
4.088987350463867 32.17131805419922 22.880653381347656
4.422661781311035 42.175140380859375 -43.05180740356445
3.774587631225586 51.00788879394531 5.39863920211792
4.557411193847656 16.842958450317383 52.98160934448242
5.966695785522461 39.188201904296875 9.616072654724121
4.77384090423584 41.14307403564453 -46.73003005981445
4.917275428771973 8.400373458862305 44.838436126708984
4.240256309509277 -8.437921524047852 -0.7766537666320801
4.358236312866211 32.092552185058594 -53.21641159057617
4.4106550216674805 51.88755798339844 7.650374889373779
4.327944755554199 23.89964485168457 16.06634521484375
4.269718170166016 21.477109909057617 30.346935272216797
4.00438117980957 -1.6614646911621094 6.071448802947998
4.423433303833008 14.385625839233398 43.10920333862305
4.429539680480957 15.250101089477539 -10.927281379699707
4.903324127197266 23.392675399780273 -8.403569221496582
3.990924835205078 -8.468097686767578 -11.706952095031738
5.750387191772461 36.64350128173828 -24.953609466552734
4.660713195800781 1.3169136047363281 -19.493389129638672
5.129983901977539 31.989938735961914 -24.44912338256836
5.037039756774902 34.28386688232422 -53.03543472290039
4.7192888259887695 37.50920867919922 19.638504028320312
5.398598670959473 37.0570068359375 -52.099552154541016
4.176251411437988 44.47825622558594 -0.028019458055496216
4.412240028381348 17.927270889282227 34.340660095214844
4.248424530029297 17.72740364074707 10.409152030944824
4.727878570556641 12.217618942260742 -7.849178791046143
4.2253522872924805 2.9789905548095703 36.23153305053711
4.486037254333496 22.592622756958008 17.76828384399414
4.372391700744629 1.2820682525634766 7.286811351776123
4.641031265258789 37.3955078125 8.140814781188965
4.9279985427856445 11.999650955200195 29.683975219726562
5.137338638305664 15.52299690246582 -8.83556842803955
4.924404144287109 30.684629440307617 9.680014610290527
5.242119789123535 24.05735206604004 -20.82845687866211
4.914303779602051 30.937379837036133 -53.5561408996582
4.518914222717285 4.495824813842773 35.10261154174805
4.639418601989746 -7.20717716217041 1.02821683883667
5.370545387268066 14.184240341186523 47.0633544921875
4.482134819030762 24.463239669799805 28.221603393554688
4.56938362121582 2.4123477935791016 37.275390625
4.535428047180176 23.398752212524414 -46.82416915893555
5.069549560546875 40.58192443847656 -49.8504753112793
4.756845474243164 13.66575813293457 -8.823811531066895
5.049398422241211 31.609086990356445 -6.121235370635986
4.992084503173828 42.041595458984375 17.887645721435547
6.622629165649414 38.29286193847656 9.761221885681152
4.614424705505371 -9.138097763061523 -8.482747077941895
4.6474809646606445 32.43928527832031 9.640265464782715
5.487480163574219 25.747648239135742 -22.241100311279297
5.178152084350586 22.177759170532227 -19.74924087524414
4.89052677154541 13.007783889770508 50.989707946777344
4.813576698303223 29.49601936340332 25.04874038696289
4.597661972045898 13.57911491394043 -30.654987335205078
4.594504356384277 40.03977966308594 -1.6635022163391113
4.523283958435059 11.702413558959961 -28.912601470947266
5.80820369720459 25.16624641418457 -48.316463470458984
4.742301940917969 27.184099197387695 12.983901023864746
6.371977806091309 11.461065292358398 -9.229069709777832
5.920688629150391 21.388395309448242 -20.288692474365234
4.906394004821777 8.588569641113281 33.24821090698242
4.765406608581543 9.515371322631836 -27.264965057373047
4.742828369140625 16.02745246887207 -35.21096420288086
4.943575859069824 3.445585250854492 39.13733673095703
5.3577680587768555 15.296106338500977 51.496253967285156
5.341525077819824 22.29848289489746 30.271041870117188
5.048415184020996 48.029197692871094 1.8228869438171387
5.020620346069336 16.853666305541992 -14.442631721496582
5.252989768981934 34.517677307128906 -4.576000690460205
5.707820892333984 -7.0601043701171875 -12.265721321105957
4.973825454711914 -5.753297805786133 2.451953411102295
5.892045974731445 14.725332260131836 49.43684768676758
5.610313415527344 51.09199523925781 5.629851818084717
5.480266571044922 51.84943389892578 9.688857078552246
4.946450233459473 28.123628616333008 -51.353214263916016
5.070522308349609 49.97992706298828 3.658179759979248
5.151613235473633 14.942819595336914 37.24787139892578
5.1512651443481445 13.936010360717773 39.70258712768555
5.343487739562988 17.941865921020508 23.116348266601562
5.806177139282227 29.689687728881836 -53.4137077331543
5.108124732971191 -9.001598358154297 -5.465748310089111
5.120041847229004 33.38311004638672 23.02669906616211
5.159590721130371 26.00714683532715 -50.81240463256836
6.102536201477051 40.866798400878906 -45.999446868896484
5.9395246505737305 50.2978515625 13.262385368347168
5.334991455078125 -3.558948516845703 4.401835918426514
5.484256744384766 6.040014266967773 -23.997196197509766
5.521553039550781 -5.095428466796875 -14.565083503723145
5.419240951538086 19.42457389831543 -18.515033721923828
5.408998489379883 25.67124366760254 10.180453300476074
5.9276123046875 7.718168258666992 32.60803985595703
5.75260066986084 48.588844299316406 14.866236686706543
5.330166816711426 12.639368057250977 9.15476131439209
6.0480756759643555 7.924524307250977 44.25162124633789
5.683804512023926 1.5755653381347656 7.120818614959717
5.439966201782227 23.78139305114746 -49.952449798583984
6.778956413269043 35.2083740234375 8.195086479187012
5.369783401489258 25.288484573364258 -49.73958206176758
5.451189041137695 26.763093948364258 -51.829036712646484
6.1727094650268555 32.18871307373047 -54.00370407104492
6.298764228820801 22.696306228637695 -44.50322341918945
6.742510795593262 40.6107177734375 -38.03303909301758
5.578838348388672 12.65703010559082 28.343692779541016
5.450024604797363 19.938100814819336 -40.27744674682617
5.586006164550781 17.802080154418945 34.003475189208984
5.46512508392334 -8.226198196411133 -10.163548469543457
5.48658561706543 46.69209289550781 16.026676177978516
6.530895233154297 38.394081115722656 -50.9481315612793
6.171688079833984 31.87367057800293 9.799704551696777
6.053443908691406 -8.161149978637695 -3.6240200996398926
5.604494094848633 -1.0604934692382812 5.975078105926514
6.728039741516113 2.866209030151367 38.57764434814453
6.4646100997924805 28.594907760620117 -25.135082244873047
5.380626678466797 11.821817398071289 -9.102940559387207
6.121882438659668 21.047197341918945 19.21936798095703
5.249266624450684 41.37135314941406 -33.702388763427734
5.278419494628906 27.06048011779785 -50.001468658447266
5.754803657531738 17.983469009399414 10.229418754577637
5.067081451416016 13.919435501098633 44.986053466796875
5.622203826904297 43.48988342285156 0.5027728080749512
5.671725273132324 18.48980140686035 -37.874446868896484
6.181867599487305 29.149938583374023 11.441546440124512
6.562067985534668 13.243719100952148 37.08369827270508
6.239626884460449 11.118082046508789 48.2525749206543
5.900113105773926 23.94346809387207 -51.47294998168945
5.667318344116211 23.097665786743164 -48.93045425415039
5.9861650466918945 26.02435874938965 -48.79159164428711
6.5120744705200195 12.589765548706055 38.269927978515625
6.449093818664551 13.35395622253418 50.05018615722656
6.481405258178711 13.274045944213867 -11.925885200500488
5.989441871643066 40.43634796142578 -48.41958236694336
6.2220458984375 46.64897918701172 1.9518847465515137
6.638051986694336 39.502342224121094 -49.80073165893555
7.351972579956055 24.62971305847168 -46.32455062866211
6.049433708190918 29.430253982543945 25.563583374023438
5.710904121398926 2.447999954223633 35.596492767333984
6.1400909423828125 49.839813232421875 4.268432140350342
6.004335403442383 1.9471321105957031 36.650413513183594
6.966987609863281 12.707487106323242 46.775394439697266
6.290790557861328 51.121437072753906 11.605055809020996
5.896636962890625 4.619184494018555 34.17826843261719
6.238106727600098 51.34465026855469 7.500560283660889
6.768653869628906 36.389198303222656 -52.33359909057617
6.337650299072266 -7.2305450439453125 -1.3472332954406738
6.127387046813965 28.42499351501465 -53.20463943481445
5.93802547454834 -8.441497802734375 -7.307850360870361
5.958793640136719 40.281883239746094 -31.504070281982422
6.782769203186035 30.377439498901367 -26.140743255615234
6.046630859375 42.4468994140625 18.271499633789062
6.210230827331543 15.468202590942383 35.752132415771484
6.32096004486084 26.614587783813477 13.357691764831543
